-0.17987128 0.27335536 -0.18571429 1.0
0.16218896 0.5 -0.13959478 2.0
0.040582463 0.3510871 -0.18571429 1.0
-0.2857143 -0.48627925 -0.13022259 5.0
0.08929994 0.21195503 -0.1 0.0
-0.2614486 0.19637597 -0.1 0.0
-0.16990049 0.35934287 -0.18571429 1.0
-0.044157397 0.17179571 -0.18571429 1.0
0.21620421 -0.31147638 -0.18571429 1.0
0.0075667896 0.37875006 -0.18571429 1.0
-0.07506245 -0.2885958 -0.18571429 1.0
0.28442016 0.5 0.15734415 2.0
0.21915303 0.5 -0.16139275 2.0
-0.15559947 -0.12697534 -0.1 0.0
0.14507662 0.5 0.09580642 2.0
0.2857143 0.1436179 -0.1647161 3.0
0.12537624 -0.38644764 -0.1 0.0
-0.26019776 0.24340943 -0.1 0.0
0.26608998 -0.18351214 -0.1 0.0
0.170302 -0.19312122 -0.18571429 1.0
0.19472796 0.14554873 -0.18571429 1.0
0.24381219 0.3866346 -0.1 0.0
-0.07209761 0.16762587 -0.18571429 1.0
-0.19651514 -0.2887372 -0.18571429 1.0
0.21261823 0.025522998 -0.18571429 1.0
-0.18271084 -0.1643607 -0.18571429 1.0
-0.22378473 -0.4113977 -0.1 0.0
0.12777255 0.5 0.07827179 2.0
-0.09699631 0.037706982 -0.1 0.0
0.10566269 -0.03900263 -0.1 0.0
-0.24985425 0.45187 -0.18571429 1.0
-0.1229371 0.46168262 -0.1 0.0
0.15175052 0.5 -0.00048414798 2.0
0.24927002 0.4393712 -0.18571429 1.0
0.25072184 -0.15732813 -0.18571429 1.0
0.23163515 -0.0064387335 -0.18571429 1.0
-0.043120895 0.22203748 -0.1 0.0
-0.28522885 0.18182999 -0.1743036 11.0
0.18042375 -0.047535375 -0.1 0.0
0.2857143 -0.40362307 -0.11742268 3.0
0.2857143 -0.049397387 -0.16953161 3.0
-0.057142857 -0.036531612 -0.1388214 6.0
-0.057142857 -0.37323087 -0.12782481 6.0
0.12603486 0.41428572 0.13756098 4.0
-0.22538422 -0.19241394 -0.18571429 1.0
0.057142857 0.49056053 0.07372166 10.0
-0.1484232 0.215817 -0.1 0.0
0.26370847 -0.14340368 -0.1 0.0
0.24320237 0.038791228 -0.18571429 1.0
0.09714212 0.3036763 -0.1 0.0
-0.27196157 -0.012863752 -0.100060664 12.0
-0.21572226 -0.19173345 -0.18571429 1.0
0.09578513 0.5 0.14223185 2.0
0.2857143 0.4393886 0.014501367 3.0
0.26497728 -0.39363942 -0.1 0.0
-0.057142857 -0.49045622 -0.13873133 6.0
0.1302051 -0.08337934 -0.1 0.0
0.06594177 0.31127197 -0.1 0.0
0.057142857 -0.09455675 -0.10779905 7.0
-0.098481506 -0.3771683 -0.1 0.0
-0.2857143 -0.17653953 -0.15821213 5.0
0.14007978 0.038973223 -0.1 0.0
0.001905575 0.47529444 -0.1 0.0
0.24999237 0.4720897 0.18571429 13.0
0.20133688 0.5 0.05302875 2.0
-0.12778139 0.0622471 -0.18571429 1.0
-0.27591357 0.16684899 -0.1007767 12.0
-0.17573377 -0.018578269 -0.1 0.0
-0.28168166 -0.31834635 -0.18121469 11.0
0.22011104 0.41428572 0.06358585 4.0
-0.28000847 -0.4146025 -0.18249418 11.0
0.20330171 -0.21702735 -0.1 0.0
-0.07886407 -0.038423825 -0.1 0.0
-0.21716094 0.5 -0.1555035 2.0
-0.2857143 -0.2303802 -0.13568453 5.0
0.27088904 -0.3009486 -0.18571429 1.0
0.10240022 0.5 -0.004125331 2.0
0.2857143 0.42623037 0.117294975 3.0
-0.00073859707 0.18564004 -0.15083475 16.0
-0.2857143 -0.34880278 -0.17052625 5.0
0.21895564 0.41428572 -0.027702954 4.0
0.0132040335 0.4075319 -0.18571429 1.0
-0.057142857 -0.27050406 -0.109072745 6.0
0.2857143 0.491431 -0.12353475 3.0
0.0016645088 0.49550563 -0.104373686 14.0
0.2857143 -0.11894024 -0.12137229 3.0
0.25891125 -0.21684362 -0.1 0.0
0.23253484 -0.25315717 -0.1 0.0
-0.2856016 0.19727182 -0.17216122 11.0
-0.08815857 0.48009992 -0.1 0.0
0.16203003 0.29281744 -0.1 0.0
-0.22987516 0.22481313 -0.1 0.0
-0.07213379 -0.121858135 -0.18571429 1.0
-0.037306875 0.41738853 -0.18571429 1.0
-0.20188707 -0.16171679 -0.1 0.0
-0.11304972 0.107162744 -0.1 0.0
-0.2857143 -0.43983155 -0.13177074 5.0
-0.23179707 -0.05254317 -0.18571429 1.0
0.2857143 -0.13133137 -0.12221365 3.0
0.22681712 -0.12835492 -0.18571429 1.0
0.28561607 0.18979518 -0.17206708 9.0
0.12185598 0.180944 -0.1 0.0
-0.11804612 -0.19584556 -0.18571429 1.0
0.1918158 0.12154169 -0.18571429 1.0
-0.18547459 -0.3526005 -0.18571429 1.0
-0.2693738 -0.24806623 -0.1 0.0
-0.11983705 -0.10244107 -0.1 0.0
-0.006046256 0.31727555 -0.18571429 1.0
-0.22517191 -0.1380069 -0.18571429 1.0
-0.083419465 -0.29905465 -0.1 0.0
0.2857143 0.41806382 -0.11194908 3.0
-0.18422762 -0.07937775 -0.18571429 1.0
0.26414856 -0.41412988 -0.18571429 1.0
-0.14023055 -0.274514 -0.1 0.0
0.08838664 0.5 0.13292965 2.0
-0.2857143 -0.16238119 -0.16286159 5.0
0.111913286 -0.5 -0.12156928 8.0
0.17946589 0.41428572 0.049558546 4.0
-0.057142857 -0.25171563 -0.1301373 6.0
-0.22206567 0.3232156 -0.18571429 1.0
0.096092604 -0.5 -0.13385503 8.0
-0.16255024 -0.04816034 -0.1 0.0
-0.2354802 -0.20914142 -0.18571429 1.0
0.15467292 0.09025078 -0.18571429 1.0
-0.09648781 0.028147 -0.18571429 1.0
0.057142857 0.039082598 -0.17538354 7.0
0.14637096 0.5 -0.092253886 2.0
0.23820607 -0.20910776 -0.1 0.0
-0.058801413 -0.19881529 -0.1 0.0
-0.22143756 0.11426428 -0.1 0.0
-0.17596988 0.15796809 -0.18571429 1.0
-0.26140854 -0.30205518 -0.18571429 1.0
0.124561556 0.5 0.12285467 2.0
0.23367605 0.22473484 -0.1 0.0
0.17517154 0.41428572 0.004188852 4.0
0.2061253 0.41428572 0.010155584 4.0
-0.244176 -0.07619116 -0.1 0.0
0.24241535 0.41428572 0.08955065 4.0
0.09050136 -0.42686337 -0.18571429 1.0
-0.23452327 -0.29343662 -0.1 0.0
0.07866662 0.32619593 -0.18571429 1.0
0.20729518 -0.36457852 -0.1 0.0
-0.2857143 -0.30934063 -0.12575014 5.0
0.07526844 -0.06055162 -0.18571429 1.0
0.14159726 0.5 -0.010279346 2.0
-0.08422604 0.3274108 -0.18571429 1.0
-0.06163111 -0.43534786 -0.1 0.0
0.14943428 -0.36503515 -0.18571429 1.0
0.15922782 0.076474525 -0.1 0.0
-0.23136418 0.31458062 -0.1 0.0
-0.19250038 0.00066969777 -0.18571429 1.0
-0.12873372 0.011680937 -0.1 0.0
-0.27541122 -0.10278711 -0.10076362 12.0
0.14778705 0.5 -0.039317515 2.0
0.26382515 0.41428572 -0.018120902 4.0
-0.0379045 0.29096007 -0.1 0.0
0.21745835 0.10803648 -0.18571429 1.0
0.14403285 0.37044087 -0.18571429 1.0
0.21455126 0.16461699 -0.1 0.0
-0.13167976 0.021727653 -0.1 0.0
-0.08922293 -0.5 -0.12400419 8.0
0.057142857 0.49402303 0.14491512 10.0
-0.057142857 -0.21071574 -0.14929256 6.0
0.13544618 -0.39288387 -0.18571429 1.0
0.2857143 0.39382577 -0.11495938 3.0
0.17599545 0.5 0.10551953 2.0
-0.15476374 -0.10595169 -0.18571429 1.0
0.2857143 0.42172968 0.14627568 3.0
-0.18220158 0.24534209 -0.18571429 1.0
0.057142857 0.05300431 -0.16316785 7.0
-0.17576282 0.04251768 -0.18571429 1.0
0.19328023 -0.3163573 -0.1 0.0
0.21004573 0.28508812 -0.18571429 1.0
-0.24917664 -0.13630895 -0.1 0.0
-0.21439733 -0.3795036 -0.1 0.0
0.048097022 0.3442546 -0.1 0.0
0.18579437 0.41428572 0.074058585 4.0
0.06945748 0.034153033 -0.18571429 1.0
0.19157018 0.027752375 -0.1 0.0
-0.18280905 0.13521267 -0.18571429 1.0
-0.28513554 -0.36856914 -0.11098712 12.0
-0.2857143 0.33331168 -0.13518468 5.0
-0.28282753 -0.19472599 -0.10638037 12.0
0.057142857 -0.09834106 -0.16761279 7.0
0.13076723 -0.12917964 -0.18571429 1.0
0.20396549 0.07364056 -0.18571429 1.0
0.20800073 -0.13049547 -0.18571429 1.0
-0.16208233 -0.019818764 -0.1 0.0
0.05106138 0.21956982 -0.18571429 1.0
-0.10859627 0.12903184 -0.18571429 1.0
0.28307378 0.34559923 -0.1795459 9.0
0.27854386 -0.26666847 -0.18365557 9.0
0.09091498 0.10614475 -0.1 0.0
0.15429236 0.5 0.07958532 2.0
0.16784258 0.5 -0.09086732 2.0
0.20645277 -0.06854525 -0.18571429 1.0
0.14077318 0.10223032 -0.1 0.0
0.0596089 -0.410008 -0.18571429 1.0
0.17851906 0.41428572 0.08014437 4.0
-0.057142857 0.103664674 -0.109123625 6.0
0.09819692 0.0092643695 -0.1 0.0
0.057142857 -0.4820793 -0.103321314 7.0
-0.16840288 -0.19690448 -0.18571429 1.0
0.2857143 -0.2797407 -0.13000184 3.0
0.2857143 0.009232886 -0.12626854 3.0
0.26685992 0.08138933 -0.1 0.0
0.20481658 0.5 0.08966566 2.0
-0.23072268 -0.07168871 -0.1 0.0
0.2694209 0.41428572 -0.06452121 4.0
0.11699683 0.17400694 -0.18571429 1.0
-0.053807825 0.1474137 -0.1778047 16.0
0.057142857 -0.13932443 -0.12426869 7.0
-0.010501567 0.39296848 -0.18571429 1.0
-0.12931943 -0.07068324 -0.1 0.0
0.1599551 0.05286715 -0.18571429 1.0
-0.119303495 0.2748305 -0.18571429 1.0
0.17039093 0.11471235 -0.1 0.0
0.057142857 -0.43434486 -0.18301411 7.0
0.25713956 0.3295714 -0.1 0.0
-0.09727805 -0.42715403 -0.18571429 1.0
0.21718799 0.3191996 -0.1 0.0
-0.24437846 0.018904869 -0.18571429 1.0
0.103833616 -0.09827763 -0.18571429 1.0
-0.25885147 -0.3767063 -0.1 0.0
0.06886439 -0.25669652 -0.1 0.0
-0.04346666 0.40586218 -0.18571429 1.0
0.2857143 -0.46620283 -0.12013057 3.0
0.15096262 0.3496895 -0.18571429 1.0
-0.2626771 -0.48256925 -0.18571429 1.0
0.25400805 0.5 -0.08134148 2.0
-0.030196408 0.5 -0.16062681 2.0
0.25780448 -0.09624313 -0.1 0.0
0.12906039 -0.401418 -0.18571429 1.0
-0.039077807 0.18875201 -0.18571429 1.0
0.11376441 -0.28600025 -0.18571429 1.0
-0.057142857 0.10848472 -0.11783179 6.0
-0.2857143 -0.37151876 -0.16184655 5.0
0.103701904 -0.41076732 -0.18571429 1.0
0.023559088 0.420312 -0.18571429 1.0
-0.13217244 -0.04203953 -0.18571429 1.0
0.057233177 0.008503359 -0.1 0.0
-0.12757067 -0.19972484 -0.1 0.0
0.07037353 0.15622807 -0.1 0.0
0.2502377 -0.4703672 -0.1 0.0
-0.27885708 0.09691295 -0.10217072 12.0
0.07279242 0.5 0.00030365246 2.0
0.06864986 0.13383849 -0.1 0.0
-0.21183856 0.38950324 -0.1 0.0
-0.2857143 -0.27688512 -0.11892892 5.0
0.12037608 0.39949536 -0.18571429 1.0
-0.07486048 -0.26805192 -0.1 0.0
-0.084279895 -0.20812184 -0.1 0.0
-0.16773768 0.023827935 -0.18571429 1.0
0.11672475 0.5 -0.11025066 2.0
0.025144907 0.3885241 -0.1 0.0
-0.18516232 -0.380389 -0.1 0.0
-0.061978746 -0.47673324 -0.18571429 1.0
0.16931732 0.054855533 -0.1 0.0
-0.26183912 0.022706399 -0.1 0.0
0.086557396 0.41428572 -0.08129897 4.0
0.13542663 0.2522283 -0.1 0.0
-0.2857143 0.30948445 -0.13301958 5.0
-0.10262679 -0.0443554 -0.18571429 1.0
0.23158753 -0.31686223 -0.1 0.0
-0.2857143 -0.008538296 -0.14622515 5.0
-0.12700748 -0.13868967 -0.18571429 1.0
-0.116109885 -0.44243562 -0.1 0.0
-0.26277825 -0.28439587 -0.18571429 1.0
0.10542616 -0.25321552 -0.18571429 1.0
-0.20989035 0.015540121 -0.18571429 1.0
-0.092123814 0.271288 -0.1 0.0
0.25202355 -0.227512 -0.18571429 1.0
-0.031227315 0.3537016 -0.18571429 1.0
0.080638655 0.23205282 -0.18571429 1.0
0.24088602 -0.19966008 -0.1 0.0
-0.070744865 -0.3984971 -0.1 0.0
0.2461362 0.35464332 -0.1 0.0
0.24596174 -0.40839592 -0.1 0.0
-0.013455953 0.2862536 -0.18571429 1.0
0.18725418 -0.034012437 -0.18571429 1.0
-0.09936588 -0.36058554 -0.1 0.0
-0.05566508 0.47155634 -0.18571429 1.0
-0.22076498 -0.24352618 -0.18571429 1.0
0.09346999 -0.16739286 -0.18571429 1.0
-0.090254284 0.19332257 -0.1 0.0
0.16874273 -0.4977606 -0.1 0.0
0.059158593 0.5 0.034598522 2.0
0.20423536 0.020699922 -0.1 0.0
-0.27924058 -0.16947511 -0.18336578 11.0
0.072136916 -0.40561035 -0.1 0.0
-0.27140656 -0.025575489 -0.1 0.0
-0.282781 -0.24614751 -0.17983916 11.0
0.12394391 -0.2577837 -0.1 0.0
0.06595503 0.41428572 0.025715249 4.0
0.17857984 -0.20265065 -0.1 0.0
0.27788398 0.41428572 0.056682248 4.0
-0.092389956 0.4095973 -0.1 0.0
0.09332314 -0.257017 -0.18571429 1.0
0.101127386 0.5 -0.16269498 2.0
0.16205592 0.2830803 -0.18571429 1.0
-0.22043246 -0.5 -0.11359914 8.0
0.2515261 -0.1246834 -0.18571429 1.0
0.27038327 0.21310306 -0.18571429 1.0
0.0113381 0.49556196 -0.10430687 14.0
-0.2857143 0.17507122 -0.13646424 5.0
-0.23153889 0.42261633 -0.1 0.0
-0.17701003 0.060487375 -0.1 0.0
-0.2857143 -0.33444944 -0.1346481 5.0
0.26680917 0.40137997 -0.18571429 1.0
-0.2335454 0.3269009 -0.18571429 1.0
-0.2857143 0.4729178 -0.11450229 5.0
0.057142857 0.49995816 -0.044843514 10.0
0.2857143 -0.04259234 -0.12596023 3.0
0.16610181 0.012174507 -0.1 0.0
-0.068814546 -0.5 -0.11818501 8.0
0.057142857 0.0050188354 -0.17175585 7.0
0.056251306 0.49925 -0.17323923 14.0
0.11862552 0.41428572 -0.07383641 4.0
0.1864426 0.42970893 0.18571429 13.0
0.2857143 0.283935 -0.14607552 3.0
0.11623661 -0.47843024 -0.1 0.0
0.12233966 0.5 0.10094866 2.0
0.2551507 0.30420932 -0.1 0.0
-0.12234664 -0.36434048 -0.1 0.0
-0.09581666 -0.34314206 -0.18571429 1.0
0.21317168 0.5 0.1465029 2.0
0.2857143 0.42970824 -0.078772716 3.0
0.26525947 -0.3581054 -0.1 0.0
-0.06276063 0.06346778 -0.18571429 1.0
0.18071826 0.5 0.009814273 2.0
-0.2234947 0.4166211 -0.1 0.0
0.2857143 -0.23886132 -0.1267088 3.0
0.2857143 -0.087087214 -0.16752432 3.0
-0.0042780926 0.29627058 -0.18571429 1.0
-0.26461476 0.41276017 -0.18571429 1.0
0.083544485 -0.23268785 -0.18571429 1.0
0.2857143 0.4935801 -0.1124319 3.0
0.057142857 -0.086888604 -0.16708529 7.0
0.092189126 -0.5 -0.15755773 8.0
0.2764342 0.5 0.10973823 2.0
0.014119087 0.37303075 -0.1 0.0
0.24824686 -0.00960167 -0.18571429 1.0
0.057142857 -0.24640965 -0.14739318 7.0
0.18889289 0.31050107 -0.1 0.0
0.057142857 -0.35295504 -0.1778051 7.0
-0.20271267 0.28536388 -0.18571429 1.0
-0.07207346 0.22726959 -0.18571429 1.0
0.20497674 0.49440995 0.18571429 13.0
0.06845105 0.41428572 0.07398392 4.0
-0.28539747 -0.084202945 -0.17382722 11.0
-0.08203962 0.22581688 -0.18571429 1.0
0.12833661 0.5 0.06268572 2.0
0.19062817 -0.28560013 -0.18571429 1.0
0.120856985 0.41428572 -0.011544944 4.0
-0.12199976 -0.338284 -0.18571429 1.0
-0.21134412 0.44106945 -0.18571429 1.0
0.057142857 0.03597388 -0.14046785 7.0
0.13739707 0.41428572 0.067977756 4.0
0.1712811 0.26527488 -0.18571429 1.0
-0.2857143 -0.31883705 -0.13344674 5.0
-0.030575693 0.1921806 -0.1 0.0
0.2857143 0.4209104 -0.09993214 3.0
0.096936636 0.19257687 -0.18571429 1.0
0.19490857 0.46586403 0.18571429 13.0
-0.23974314 0.21379001 -0.18571429 1.0
0.06420668 -0.36802998 -0.1 0.0
0.25058287 0.37911037 -0.1 0.0
0.26506624 -0.43524122 -0.18571429 1.0
0.16011244 0.009751143 -0.18571429 1.0
-0.07554959 -0.13848822 -0.1 0.0
0.08148334 0.41428572 0.06852142 4.0
-0.25395602 -0.09304759 -0.1 0.0
0.28550467 0.04241265 -0.1728171 9.0
-0.095278926 0.013600163 -0.18571429 1.0
0.2857143 0.41563234 0.03813401 3.0
-0.015485874 0.32909414 -0.18571429 1.0
0.2292066 -0.022315169 -0.18571429 1.0
0.06087275 -0.22822855 -0.18571429 1.0
-0.04748772 0.5 -0.15809019 2.0
-0.2275994 0.16911048 -0.1 0.0
0.16339737 -0.16187781 -0.18571429 1.0
-0.1863168 0.1219525 -0.18571429 1.0
0.19719835 0.2446398 -0.1 0.0
-0.017208273 0.30283067 -0.1 0.0
-0.22590724 0.0114624165 -0.1 0.0
0.112817235 0.5 0.13111557 2.0
-0.03965196 0.46234855 -0.1 0.0
-0.06139986 0.5 -0.13878703 2.0
-0.18333244 -0.20787573 -0.1 0.0
-0.1860588 -0.30766216 -0.18571429 1.0
0.28364438 0.23305687 -0.10928851 15.0
-0.2857143 -0.33506545 -0.12332749 5.0
-0.25459474 0.16037625 -0.18571429 1.0
0.108915925 -0.124777414 -0.18571429 1.0
0.26722312 0.19051099 -0.18571429 1.0
-0.18620098 -0.3757489 -0.18571429 1.0
0.18964966 -0.3756765 -0.1 0.0
-0.15022644 -0.32283437 -0.1 0.0
0.102572404 0.2629813 -0.1 0.0
0.26726902 -0.36209834 -0.18571429 1.0
0.23276354 0.2490014 -0.1 0.0
0.24764173 0.5 -0.073384464 2.0
0.10714791 -0.3014345 -0.18571429 1.0
0.14904001 -0.3731925 -0.1 0.0
0.15652566 0.030199083 -0.1 0.0
-0.2703197 0.16446418 -0.18571429 1.0
-0.015076103 0.37164468 -0.18571429 1.0
0.2857143 0.38738593 -0.1411488 3.0
0.12336694 0.07277712 -0.18571429 1.0
0.22221619 -0.10719411 -0.18571429 1.0
0.003983978 0.2017206 -0.1 0.0
-0.200826 -0.4488627 -0.18571429 1.0
0.27847916 0.1062322 -0.18378037 9.0
0.26157495 0.0268205 -0.1 0.0
-0.17861138 0.30248132 -0.18571429 1.0
0.2857143 0.46024233 0.17274325 3.0
0.07411396 -0.14065722 -0.1 0.0
-0.26843306 -0.36927506 -0.1 0.0
0.14940186 -0.4618263 -0.1 0.0
0.2857143 0.444426 0.050235577 3.0
-0.18347491 -0.5 -0.15206547 8.0
0.2857143 -0.30246377 -0.16772597 3.0
-0.28555578 0.21928649 -0.17242622 11.0
-0.2857143 -0.12413426 -0.12796402 5.0
-0.09888699 0.4582317 -0.1 0.0
0.27653697 0.17107554 -0.18471703 9.0
-0.19864443 -0.5 -0.16511235 8.0
0.20563428 0.5 0.041030783 2.0
-0.0709609 -0.15098244 -0.1 0.0
0.101983026 0.5 0.1350177 2.0
0.17700091 0.1070984 -0.18571429 1.0
0.26144183 0.41428572 0.15163663 4.0
-0.12735133 0.5 -0.13104233 2.0
0.21584673 -0.24475849 -0.1 0.0
0.28163344 0.015289357 -0.104433745 15.0
0.057142857 -0.429101 -0.14076622 7.0
0.2830259 -0.2281723 -0.10779535 15.0
-0.2857143 -0.30720067 -0.13595569 5.0
-0.2021155 -0.14165159 -0.1 0.0
0.2857143 -0.027906034 -0.14146292 3.0
0.15108587 0.5 -0.1219585 2.0
0.23018655 -0.086034305 -0.1 0.0
-0.25301832 0.28474995 -0.1 0.0
0.15754814 -0.36773422 -0.1 0.0
-0.21478376 -0.39311498 -0.18571429 1.0
-0.18225287 -0.40855548 -0.18571429 1.0
0.2857143 0.014909022 -0.13693897 3.0
0.16348416 0.41428572 -0.07414928 4.0
-0.080966696 0.20273401 -0.18571429 1.0
0.14287916 -0.34064204 -0.1 0.0
0.076513655 0.2568683 -0.18571429 1.0
0.21668912 0.3726283 -0.1 0.0
0.27350616 -0.41733727 -0.1852693 9.0
-0.059993703 -0.3972074 -0.1 0.0
0.18665516 -0.09679937 -0.18571429 1.0
0.089454226 -0.15247251 -0.18571429 1.0
0.09299335 -0.35378525 -0.1 0.0
0.1117399 -0.5 -0.14448135 8.0
-0.15681729 0.4999285 -0.11392609 14.0
-0.2857143 -0.13616341 -0.16837162 5.0
0.057142857 0.11039084 -0.1774006 7.0
0.280694 0.2612741 -0.18221131 9.0
0.071511745 0.5 0.1513479 2.0
-0.21248554 -0.043341976 -0.1 0.0
0.2048513 -0.39536464 -0.18571429 1.0
0.20781304 -0.18828364 -0.18571429 1.0
0.19839026 0.0965567 -0.1 0.0
-0.057142857 -0.15921775 -0.14581726 6.0
0.19624333 -0.5 -0.1447738 8.0
-0.22269927 0.46081433 -0.18571429 1.0
-0.20862556 0.3221029 -0.1 0.0
0.058313098 -0.5 -0.12818165 8.0
0.057142857 -0.097401075 -0.13354874 7.0
-0.09605215 -0.36742157 -0.18571429 1.0
0.15824592 -0.14551052 -0.18571429 1.0
-0.13318273 -0.3309244 -0.1 0.0
-0.1931117 0.44692135 -0.18571429 1.0
0.24114187 0.41428572 -0.036419045 4.0
0.15990081 0.021953499 -0.18571429 1.0
0.057142857 0.099325195 -0.15293822 7.0
0.07289314 -0.36258364 -0.1 0.0
0.1167763 -0.23254044 -0.18571429 1.0
0.13764966 0.33562693 -0.1 0.0
-0.057142857 -0.23449795 -0.15373732 6.0
0.073834516 0.5 -0.023850217 2.0
-0.06717078 -0.13465351 -0.18571429 1.0
0.20150812 0.41428572 0.019565428 4.0
0.2857143 0.4368251 -0.1270088 3.0
0.24053812 0.43421713 -0.18571429 1.0
-0.19142583 -0.036543664 -0.18571429 1.0
-0.21388283 -0.35916126 -0.18571429 1.0
0.003422715 0.5 -0.14516145 2.0
0.2857143 0.4027033 -0.17043123 3.0
0.057142857 -0.4609504 -0.118364476 7.0
0.23180327 -0.5 -0.13404396 8.0
0.2857143 -0.28529605 -0.11889351 3.0
0.08636612 0.3094659 -0.1 0.0
-0.057142857 -0.1467542 -0.18128239 6.0
-0.21452568 0.3334613 -0.1 0.0
0.031832162 0.32375833 -0.18571429 1.0
-0.19138756 -0.44895554 -0.1 0.0
-0.18611279 0.038010165 -0.18571429 1.0
0.054805376 0.3977385 -0.18571429 1.0
-0.057142857 0.12318311 -0.14219692 6.0
-0.1897125 0.33770972 -0.18571429 1.0
-0.11087524 -0.3608683 -0.1 0.0
-0.07452886 -0.4586126 -0.18571429 1.0
-0.22495306 -0.5 -0.12223817 8.0
-0.23630972 0.35509968 -0.18571429 1.0
-0.103322655 -0.39525035 -0.1 0.0
-0.057142857 -0.06919977 -0.15510558 6.0
0.044159878 0.16482046 -0.17430708 16.0
0.030503877 0.5 -0.116775446 2.0
-0.057142857 -0.06007939 -0.18096821 6.0
0.11361834 0.5 -0.009093051 2.0
-0.2854587 -0.18466903 -0.11279408 12.0
0.120019324 0.2960614 -0.1 0.0
0.12269846 -0.3822738 -0.18571429 1.0
0.077482626 0.0030929057 -0.18571429 1.0
-0.28540826 0.27051094 -0.112445086 12.0
0.20225526 -0.4290759 -0.1 0.0
0.2857143 -0.24707495 -0.16638857 3.0
0.18147539 -0.105734356 -0.18571429 1.0
-0.057142857 0.07145633 -0.11925477 6.0
0.26292184 -0.104092486 -0.18571429 1.0
0.09125034 0.18336417 -0.1 0.0
0.21363856 -0.232202 -0.18571429 1.0
-0.28563207 -0.0014299813 -0.11364728 12.0
0.057142857 0.46441746 0.09950425 10.0
-0.061994284 0.30100423 -0.1 0.0
0.16484974 0.091010794 -0.18571429 1.0
0.10653376 -0.4002999 -0.18571429 1.0
0.19641198 0.41428572 0.12591283 4.0
0.2857143 0.17552708 -0.16166197 3.0
0.053564172 0.40417853 -0.1 0.0
0.27596927 0.5 -0.07688722 2.0
0.057142857 -0.11807202 -0.11498674 7.0
-0.04718759 0.34391123 -0.1 0.0
-0.2815731 0.24019653 -0.18140069 11.0
-0.104596704 -0.027556017 -0.1 0.0
0.057142857 -0.41962087 -0.13524269 7.0
-0.23046342 -0.30746806 -0.18571429 1.0
-0.0070275823 0.47912994 -0.1 0.0
-0.20499781 -0.32957965 -0.18571429 1.0
-0.23283285 -0.2620948 -0.18571429 1.0
0.18627055 -0.13767189 -0.1 0.0
0.057142857 0.4586262 0.017140986 10.0
0.10149885 0.41428572 -0.015722677 4.0
-0.27398634 0.2479862 -0.10033601 12.0
-0.064013936 0.30374795 -0.18571429 1.0
0.057142857 -0.15891594 -0.15278547 7.0
-0.025448246 0.28731704 -0.18571429 1.0
-0.120261416 -0.5 -0.13945456 8.0
-0.122306764 -0.04777762 -0.18571429 1.0
0.13730675 0.5 0.0083283605 2.0
-0.20238629 0.20412195 -0.1 0.0
0.19528396 0.23374964 -0.18571429 1.0
-0.2770156 -0.18388823 -0.18450715 11.0
0.17371307 -0.5 -0.1532794 8.0
0.15948568 0.26748398 -0.18571429 1.0
-0.07543545 -0.07000832 -0.1 0.0
0.28370082 0.102319896 -0.10942482 15.0
-0.057142857 0.06373083 -0.110277556 6.0
0.057142857 0.44943565 -0.018628575 10.0
-0.2857143 0.09340515 -0.14431283 5.0
-0.02620942 0.34367412 -0.1 0.0
-0.10708484 0.3547073 -0.18571429 1.0
0.18439254 -0.32173732 -0.18571429 1.0
0.26679763 0.06953756 -0.1 0.0
0.13226147 0.41428572 0.12553118 4.0
0.23606214 -0.5 -0.1749021 8.0
0.27450943 -0.24399231 -0.18535988 9.0
-0.21023817 0.47155476 -0.18571429 1.0
0.16240631 -0.43247184 -0.18571429 1.0
-0.127453 0.5 -0.14715524 2.0
0.2857143 -0.23963992 -0.14639354 3.0
0.20403706 -0.22188689 -0.18571429 1.0
-0.2005199 -0.2404896 -0.1 0.0
-0.057142857 -0.43500477 -0.14997552 6.0
-0.2359479 0.22342427 -0.18571429 1.0
-0.18117678 -0.13786171 -0.1 0.0
-0.15835844 -0.38843668 -0.18571429 1.0
0.07932135 -0.43951815 -0.18571429 1.0
-0.17548835 -0.13408057 -0.18571429 1.0
-0.057142857 -0.420718 -0.13636564 6.0
-0.16436164 -0.5 -0.16289479 8.0
-0.04808328 0.4992181 -0.1104946 14.0
0.057142857 0.43867162 0.111180335 10.0
0.11336366 0.26295283 -0.18571429 1.0
0.21019228 -0.036315814 -0.1 0.0
-0.12574477 0.10855995 -0.1 0.0
0.12020411 -0.40803757 -0.18571429 1.0
-0.17588176 0.49800822 -0.17827766 14.0
0.12882629 -0.015751734 -0.18571429 1.0
0.19028346 0.007639237 -0.1 0.0
-0.2857143 0.49936715 -0.15682864 5.0
0.057142857 0.414977 0.13595603 10.0
-0.2857143 0.13117324 -0.16630608 5.0
0.22300583 -0.3127236 -0.1 0.0
0.057142857 -0.25509375 -0.1540343 7.0
0.23866433 0.5 -0.16015472 2.0
0.20051388 0.024653284 -0.18571429 1.0
-0.1461981 -0.082463555 -0.18571429 1.0
-0.057142857 -0.4625304 -0.12051838 6.0
0.12607197 0.41428572 -0.020758344 4.0
-0.21503866 -0.35029444 -0.1 0.0
0.057142857 0.46964058 -0.042124633 10.0
-0.057142857 -0.20721631 -0.11478404 6.0
-0.15795365 -0.24682254 -0.18571429 1.0
0.2098768 0.41428572 0.08331016 4.0
0.1279237 0.5 0.18317986 2.0
-0.28202748 -0.19481447 -0.18035312 11.0
0.057142857 0.04553658 -0.1296867 7.0
0.12696631 -0.048592143 -0.18571429 1.0
0.26804152 -0.008288162 -0.18571429 1.0
0.051057227 0.15387723 -0.13221163 16.0
0.08805813 0.22797939 -0.1 0.0
-0.18700954 -0.32562467 -0.1 0.0
0.104583986 0.20298418 -0.18571429 1.0
-0.030333951 0.43265533 -0.18571429 1.0
0.18642285 -0.30096978 -0.18571429 1.0
-0.068299726 0.17638032 -0.18571429 1.0
0.09260594 -0.08977843 -0.1 0.0
-0.0156170335 0.35982057 -0.1 0.0
-0.1746161 0.45143124 -0.1 0.0
0.054631572 0.36555415 -0.1 0.0
0.2489374 0.48267117 0.18571429 13.0
0.21320303 0.4298267 0.18571429 13.0
0.27786976 -0.45874 -0.18405238 9.0
0.08210605 -0.38806948 -0.18571429 1.0
-0.02339639 0.4998008 -0.11345842 14.0
0.15228175 -0.090343855 -0.18571429 1.0
0.24736498 0.046437796 -0.1 0.0
-0.22573371 -0.16446786 -0.1 0.0
0.28087986 0.41428572 0.18360089 4.0
0.20494625 0.5 0.13826708 2.0
-0.27943784 -0.014637774 -0.18305074 11.0
-0.18747737 0.29729095 -0.18571429 1.0
-0.15495706 -0.36601496 -0.18571429 1.0
0.161807 -0.30128828 -0.1 0.0
-0.17936675 -0.27067047 -0.1 0.0
0.051040716 0.25165242 -0.18571429 1.0
0.07124933 0.19782001 -0.18571429 1.0
-0.2857143 0.39095098 -0.120272994 5.0
-0.1545713 -0.0018354229 -0.1 0.0
0.057142857 -0.3723534 -0.11476883 7.0
-0.2857143 0.08683502 -0.16470301 5.0
-0.094334364 -0.30111665 -0.18571429 1.0
0.24108659 0.5 0.15506 2.0
0.22493377 0.5 -0.06931084 2.0
-0.11009625 -0.24653172 -0.18571429 1.0
-0.2742148 0.26945326 -0.10035851 12.0
0.2746845 -0.014020632 -0.10134865 15.0
0.009783644 0.2913931 -0.1 0.0
0.057142857 -0.31634268 -0.17037743 7.0
0.020770056 0.31024647 -0.18571429 1.0
0.2857143 -0.038296986 -0.1377581 3.0
0.19349232 -0.40393117 -0.18571429 1.0
0.03330964 0.17491676 -0.13706431 16.0
-0.20059088 0.14046909 -0.1 0.0
0.18733443 0.5 -0.1397986 2.0
0.19458184 -0.11179562 -0.18571429 1.0
0.18253769 -0.17371882 -0.18571429 1.0
0.20785522 0.5 -0.13095675 2.0
-0.09496283 -0.057744354 -0.18571429 1.0
-0.11614107 0.4001831 -0.18571429 1.0
-0.2857143 0.43702233 -0.17091377 5.0
0.20113467 -0.17603375 -0.1 0.0
-0.12937519 -0.009272283 -0.1 0.0
0.20496272 0.41428572 -0.050561916 4.0
0.07898094 -0.3860699 -0.1 0.0
-0.2857143 -0.18426368 -0.1652565 5.0
0.17577668 0.01674621 -0.1 0.0
0.21211606 0.41428572 -0.000105695544 4.0
0.16910861 0.5 0.08315671 2.0
0.09992724 0.41428572 0.14542645 4.0
-0.13938229 0.49718302 -0.17934921 14.0
0.15057106 0.33292463 -0.1 0.0
-0.22617075 0.18179742 -0.18571429 1.0
-0.120965704 -0.2822629 -0.1 0.0
0.14394043 -0.12774308 -0.1 0.0
-0.077277385 -0.41524154 -0.1 0.0
0.08078735 0.12639044 -0.18571429 1.0
0.0005492787 0.18553518 -0.16809937 16.0
0.108366795 -0.3178222 -0.1 0.0
0.21724252 -0.25097057 -0.18571429 1.0
0.2857143 0.12834032 -0.14494978 3.0
0.057142857 -0.28267816 -0.17577201 7.0
0.07747289 0.011200017 -0.1 0.0
0.19337979 0.41428572 -0.04722622 4.0
-0.09147683 -0.4273117 -0.1 0.0
-0.19216302 -0.13450216 -0.1 0.0
0.19128492 -0.18047899 -0.18571429 1.0
-0.23630708 0.039134335 -0.1 0.0
0.25670156 -0.20205486 -0.1 0.0
0.22981003 0.14918768 -0.18571429 1.0
0.22251292 0.24786049 -0.18571429 1.0
-0.057142857 0.04644769 -0.14242932 6.0
0.23429818 0.5 0.14273232 2.0
-0.24969913 0.052689843 -0.1 0.0
0.057142857 0.42997867 0.028248312 10.0
-0.22311203 -0.3694645 -0.18571429 1.0
0.0022767351 0.30563357 -0.18571429 1.0
0.2857143 -0.3387958 -0.15456276 3.0
-0.17305376 0.12845482 -0.18571429 1.0
-0.057142857 -0.14578299 -0.17186424 6.0
0.15635386 0.1031595 -0.18571429 1.0
0.21393576 -0.28409052 -0.1 0.0
-0.2857143 0.11609554 -0.117501356 5.0
-0.21863972 0.12997887 -0.1 0.0
-0.09511817 -0.04018141 -0.1 0.0
-0.2857143 -0.25418562 -0.14905925 5.0
0.26574472 0.09827338 -0.18571429 1.0
-0.057142857 0.047806233 -0.12455889 6.0
0.1530293 0.41428572 -0.03423248 4.0
0.08164004 0.41428572 -0.041968394 4.0
-0.2671266 -0.18806429 -0.1 0.0
0.1016869 0.5 0.047294993 2.0
-0.23749131 0.15772574 -0.18571429 1.0
0.22906537 0.19731867 -0.1 0.0
0.2714676 -0.051594768 -0.10001616 15.0
0.20945543 -0.061885834 -0.1 0.0
-0.15755907 0.2705327 -0.18571429 1.0
0.2081131 0.43125907 -0.18571429 1.0
0.21046293 -0.046221636 -0.18571429 1.0
0.2281918 -0.3679022 -0.1 0.0
-0.2284533 0.4664108 -0.1 0.0
0.20252803 0.5 0.16594549 2.0
0.24683726 0.18513963 -0.18571429 1.0
-0.16988854 -0.5 -0.100300536 8.0
-0.2857143 0.4723161 -0.17097703 5.0
0.24539004 -0.19117431 -0.1 0.0
0.057142857 -0.4203198 -0.17647249 7.0
0.095785886 0.5 0.16811301 2.0
0.28566393 -0.06399503 -0.17189087 9.0
-0.057142857 -0.2659895 -0.118297584 6.0
0.20330353 0.23347013 -0.1 0.0
-0.057142857 -0.23790808 -0.12845892 6.0
0.2262135 -0.44424284 -0.18571429 1.0
0.25723234 -0.3044162 -0.18571429 1.0
0.2637633 -0.42525786 -0.1 0.0
-0.27580008 -0.41466323 -0.100913554 12.0
-0.18927756 -0.5 -0.16013601 8.0
-0.11526563 0.2948655 -0.1 0.0
-0.021967137 0.5 -0.12367407 2.0
-0.28530145 0.2065932 -0.17426896 11.0
0.26079416 -0.12440791 -0.1 0.0
-0.10372724 0.087182045 -0.1 0.0
-0.2218809 0.5 -0.11522093 2.0
-0.21778809 -0.32569447 -0.18571429 1.0
0.0984663 0.369644 -0.1 0.0
-0.21975036 -0.21500178 -0.18571429 1.0
-0.21946442 -0.30366078 -0.1 0.0
-0.1393753 -0.06330256 -0.1 0.0
0.19687286 -0.06066598 -0.18571429 1.0
-0.13781805 0.5 -0.15324183 2.0
0.28151163 -0.19372007 -0.18108876 9.0
0.1830474 -0.2712069 -0.18571429 1.0
-0.056498364 0.3424278 -0.18571429 1.0
0.15615284 -0.40939772 -0.18571429 1.0
-0.08966571 -0.28931794 -0.18571429 1.0
-0.06753588 -0.17909063 -0.1 0.0
0.18544815 0.41428572 -0.07803724 4.0
0.17698833 0.5 -0.13249853 2.0
-0.22157435 0.11338562 -0.18571429 1.0
0.268631 0.5 -0.03543166 2.0
-0.08782274 0.37805146 -0.1 0.0
-0.13141999 -0.28622067 -0.18571429 1.0
0.07952815 -0.18079475 -0.1 0.0
0.15257211 0.5 0.022662874 2.0
0.057142857 -0.2164785 -0.107137784 7.0
0.25658175 0.16389921 -0.1 0.0
0.22054999 0.41428572 0.12860185 4.0
0.10526522 0.4635016 0.18571429 13.0
-0.19244494 0.45895848 -0.1 0.0
0.058430266 -0.49102527 -0.1 0.0
0.17851496 0.41428572 0.18454885 4.0
-0.21883933 -0.07417325 -0.18571429 1.0
-0.11794058 0.26280993 -0.1 0.0
-0.16835308 -0.37940362 -0.1 0.0
-0.0914728 0.15321027 -0.1 0.0
-0.2387648 0.5 -0.12431371 2.0
0.17846292 0.2643493 -0.1 0.0
0.057142857 -0.049647 -0.17957653 7.0
0.2857143 -0.33998653 -0.16470923 3.0
0.1580883 0.41428572 -0.06273192 4.0
-0.16032681 -0.040641896 -0.18571429 1.0
0.11312936 0.5 -0.16503276 2.0
0.05228477 0.15114912 -0.14400963 16.0
-0.24248528 -0.19681138 -0.1 0.0
-0.008051957 0.38161975 -0.18571429 1.0
-0.2720797 0.41611606 -0.10006768 12.0
0.20115285 0.08230865 -0.1 0.0
-0.22058737 0.056843635 -0.1 0.0
-0.042821713 0.3287236 -0.1 0.0
0.2411641 0.41428572 -0.0844639 4.0
-0.14053015 0.21625572 -0.18571429 1.0
0.057142857 0.48281947 0.16458252 10.0
-0.26146623 0.055675488 -0.1 0.0
-0.029997954 0.17707992 -0.15671769 16.0
0.19908506 0.4395245 -0.18571429 1.0
0.057142857 0.44531795 0.15323314 10.0
-0.2857143 -0.45174775 -0.1606791 5.0
-0.057142857 -0.030647209 -0.15100703 6.0
0.2168327 -0.4518188 -0.1 0.0
0.057142857 0.48976547 -0.08933491 10.0
0.1884475 0.21598697 -0.1 0.0
0.2857143 -0.18032582 -0.14469542 3.0
0.04154959 0.43860528 -0.18571429 1.0
0.069601364 -0.1314778 -0.18571429 1.0
-0.057142857 -0.42221087 -0.14901768 6.0
0.19790827 -0.16001599 -0.1 0.0
0.12170662 0.09172215 -0.1 0.0
0.22723846 -0.20295537 -0.1 0.0
0.17720282 0.17795578 -0.1 0.0
0.057142857 -0.057936426 -0.115303904 7.0
0.18087192 -0.26362556 -0.1 0.0
0.0676192 -0.05055266 -0.1 0.0
-0.057142857 -0.49851376 -0.11560874 6.0
-0.17920046 -0.4203394 -0.1 0.0
0.06618043 0.32136464 -0.1 0.0
-0.06842631 -0.027899154 -0.18571429 1.0
-0.2616791 -0.3708578 -0.18571429 1.0
0.08131669 0.16474949 -0.1 0.0
0.26043123 -0.24295056 -0.18571429 1.0
0.2857143 0.48277673 0.10782326 3.0
0.18884984 0.087857254 -0.1 0.0
0.19350612 0.5 0.10499787 2.0
-0.27700204 0.37363148 -0.18456362 11.0
0.2286923 -0.06782243 -0.18571429 1.0
0.26288334 -0.07596359 -0.18571429 1.0
-0.10776247 -0.34259194 -0.18571429 1.0
0.07790552 -0.2761832 -0.1 0.0
-0.11249942 0.33803362 -0.1 0.0
-0.18969636 0.18925683 -0.1 0.0
0.07716268 -0.0068728356 -0.18571429 1.0
0.25812578 0.35100278 -0.18571429 1.0
-0.23759773 -0.5 -0.11519898 8.0
0.0534591 0.290615 -0.1 0.0
0.2857143 0.48968604 0.044586014 3.0
0.25406805 -0.18383965 -0.1 0.0
0.2857143 0.46905765 0.13599376 3.0
0.28364617 -0.32500243 -0.10929287 15.0
-0.057142857 -0.29524848 -0.16460562 6.0
0.24571389 0.5 -0.062233277 2.0
-0.057142857 -0.10522785 -0.15931912 6.0
-0.27508992 -0.4590461 -0.18507308 11.0
-0.27067712 0.32636696 -0.18571429 1.0
-0.26162794 0.02572958 -0.18571429 1.0
0.28378168 0.1660738 -0.17849836 9.0
0.13124652 -0.35550305 -0.18571429 1.0
0.14755826 0.46316525 0.18571429 13.0
0.12464128 -0.23772378 -0.18571429 1.0
-0.2857143 0.19037823 -0.16084702 5.0
-0.03454779 0.23600289 -0.1 0.0
0.18297338 0.1269487 -0.1 0.0
-0.2695563 -0.46503463 -0.1 0.0
-0.057142857 0.06992132 -0.14629163 6.0
-0.2857143 0.3505237 -0.17100692 5.0
-0.19237877 0.30873775 -0.1 0.0
0.14880139 -0.36263072 -0.1 0.0
0.08092745 -0.25951692 -0.18571429 1.0
-0.09079216 -0.5 -0.11469653 8.0
-0.11834374 -0.088881545 -0.18571429 1.0
-0.018750051 0.33736745 -0.1 0.0
-0.18484412 -0.4350193 -0.18571429 1.0
-0.16975361 -0.40195006 -0.1 0.0
0.22429635 -0.40780336 -0.1 0.0
0.1661649 0.10129601 -0.18571429 1.0
0.2857143 0.26860642 -0.16070914 3.0
-0.2857143 -0.18437971 -0.1254041 5.0
-0.057142857 -0.05870107 -0.10971605 6.0
-0.03687911 0.27469444 -0.1 0.0
0.15897839 -0.27160817 -0.1 0.0
-0.1892046 -0.30140153 -0.1 0.0
-0.020162368 0.18196738 -0.1589225 16.0
-0.086962216 0.13415991 -0.1 0.0
-0.1011247 -0.29876244 -0.1 0.0
-0.08102372 0.15994114 -0.1 0.0
0.13970321 0.41428572 -0.071299344 4.0
-0.053775597 0.26580718 -0.18571429 1.0
0.2809441 -0.080640495 -0.18201439 9.0
0.06530256 -0.39407626 -0.1 0.0
0.09931581 0.48891714 -0.18438798 14.0
0.06809943 0.18868352 -0.1 0.0
0.25604087 0.28513873 -0.18571429 1.0
-0.20797399 0.2240996 -0.1 0.0
-0.15480676 0.20612416 -0.1 0.0
0.17094716 0.3243778 -0.1 0.0
0.22870126 0.41428572 0.03406494 4.0
0.24464037 -0.2645668 -0.18571429 1.0
0.249723 0.5 -0.16628419 2.0
-0.1184381 -0.5 -0.1119095 8.0
0.2510308 0.41428572 0.0067302133 4.0
0.11113402 -0.3183777 -0.18571429 1.0
-0.23714462 -0.028227445 -0.1 0.0
-0.17545304 0.48901817 -0.18509348 14.0
0.24482733 -0.101601936 -0.18571429 1.0
-0.057142857 -0.35385504 -0.1531866 6.0
-0.2857143 -0.10227492 -0.17125589 5.0
-0.06786714 -0.5 -0.15183546 8.0
0.19238101 0.09664198 -0.18571429 1.0
0.11356456 0.17493959 -0.1 0.0
-0.19829887 -0.5 -0.18061909 8.0
-0.2522748 -0.075821035 -0.18571429 1.0
0.16048086 -0.19427054 -0.1 0.0
-0.28541777 0.3173593 -0.17392686 11.0
-0.24795678 -0.5 -0.166746 8.0
-0.059456658 -0.02401242 -0.1 0.0
0.1610104 -0.24546146 -0.1 0.0
-0.2857143 0.44764298 -0.11934703 5.0
0.1161009 0.48646343 -0.18550242 14.0
0.110656664 0.33854774 -0.18571429 1.0
0.1540774 0.38882706 -0.18571429 1.0
0.21577424 -0.4531364 -0.18571429 1.0
0.2798817 -0.09104563 -0.18277384 9.0
-0.14020301 -0.32304168 -0.1 0.0
0.1143727 0.43159395 -0.18571429 1.0
0.26200214 0.24616311 -0.1 0.0
-0.027220402 0.21179995 -0.1 0.0
0.22586659 0.23662755 -0.1 0.0
-0.18492956 0.089591876 -0.18571429 1.0
-0.062733755 0.31540984 -0.18571429 1.0
0.057142857 0.10901394 -0.13933608 7.0
0.2477063 -0.49022418 -0.18571429 1.0
0.2857143 0.24788249 -0.13300662 3.0
0.2857143 0.37865877 -0.15918308 3.0
0.2857143 -0.1412176 -0.1530372 3.0
-0.08695624 0.04379001 -0.18571429 1.0
-0.14497702 0.010295755 -0.18571429 1.0
0.07286984 0.076563925 -0.18571429 1.0
-0.057142857 -0.16000341 -0.16712147 6.0
-0.22335011 0.29127392 -0.1 0.0
-0.19346094 0.085607186 -0.18571429 1.0
-0.057142857 0.0258678 -0.17588882 6.0
0.27699795 0.41428572 0.14411159 4.0
-0.16351983 0.17362295 -0.18571429 1.0
0.2857143 -0.43073764 -0.12931314 3.0
0.13756374 -0.20212848 -0.1 0.0
0.057142857 0.47713074 0.033011563 10.0
0.2857143 0.3202144 -0.14125536 3.0
-0.2857143 0.29303157 -0.1423764 5.0
-0.2857143 0.46620062 -0.12156698 5.0
0.15663569 0.41428572 0.13904302 4.0
0.2857143 0.22119862 -0.15988933 3.0
0.057142857 -0.19200411 -0.16085814 7.0
0.17985377 0.5 0.057798587 2.0
0.057142857 -0.45301536 -0.14984606 7.0
0.2486504 -0.20754452 -0.1 0.0
-0.1490254 -0.5 -0.1783594 8.0
-0.18946639 0.23466666 -0.18571429 1.0
-0.2192981 0.28220797 -0.18571429 1.0
-0.2629405 0.11063968 -0.1 0.0
-0.25190452 0.49864134 -0.108991355 14.0
-0.17112204 -0.041867305 -0.1 0.0
0.24389169 0.11185595 -0.1 0.0
0.19296384 0.5 0.17785513 2.0
0.13691854 0.26463652 -0.18571429 1.0
0.08223684 -0.2451713 -0.18571429 1.0
0.18338625 0.5 -0.10795475 2.0
-0.02327788 0.18067008 -0.11313528 16.0
0.00978261 0.44430602 -0.18571429 1.0
0.2857143 0.36199862 -0.16879302 3.0
-0.18562967 -0.17520528 -0.18571429 1.0
-0.09804078 -0.0078662485 -0.18571429 1.0
-0.11530306 0.49894702 -0.10899296 14.0
-0.17483753 0.4959879 -0.10443984 14.0
0.11123523 0.007445321 -0.1 0.0
0.057142857 -0.33836678 -0.16883181 7.0
0.2626059 0.5 0.011461549 2.0
0.103888005 -0.39504853 -0.1 0.0
0.2857143 0.44885045 -0.020585092 3.0
0.1354649 -0.49761528 -0.18571429 1.0
0.20344134 0.20403327 -0.1 0.0
-0.15290561 0.48838878 -0.10053204 14.0
0.15952334 0.5 -0.02829714 2.0
-0.18436305 0.49635464 -0.10498786 14.0
-0.09411748 0.3901949 -0.18571429 1.0
0.25199005 -0.23782188 -0.18571429 1.0
0.12749115 0.19567983 -0.18571429 1.0
0.17334796 -0.21415712 -0.18571429 1.0
-0.057142857 -0.4761354 -0.15875922 6.0
0.21786427 -0.49492896 -0.1 0.0
0.14660762 0.41428572 0.06996771 4.0
0.24330309 -0.33756453 -0.1 0.0
-0.20882133 0.23635742 -0.1 0.0
0.16247518 0.15310806 -0.18571429 1.0
0.1423456 -0.098523445 -0.1 0.0
0.18540299 -0.45429036 -0.18571429 1.0
-0.11079409 0.23763837 -0.1 0.0
-0.254709 -0.024098614 -0.1 0.0
0.14202303 0.5 0.1723945 2.0
0.13854384 0.010783688 -0.1 0.0
-0.15776378 0.29728636 -0.18571429 1.0
0.2857143 -0.30674565 -0.114887714 3.0
-0.05883763 0.022636553 -0.18571429 1.0
-0.2857143 -0.056232043 -0.14247058 5.0
-0.1963678 -0.39447773 -0.1 0.0
0.2857143 -0.035555627 -0.14782628 3.0
0.17483279 0.2908675 -0.1 0.0
0.2857143 0.42067808 0.010412218 3.0
0.14002807 0.47859502 -0.18571429 1.0
0.2741879 0.14654326 -0.18528707 9.0
-0.15172018 0.08222624 -0.1 0.0
0.2857143 -0.4419666 -0.12397904 3.0
-0.19140483 -0.4174254 -0.1 0.0
0.18879318 0.41428572 0.17125732 4.0
-0.2857143 0.09670316 -0.117144346 5.0
0.2136656 -0.3018167 -0.18571429 1.0
0.086152636 -0.45679367 -0.18571429 1.0
0.2591023 0.27350467 -0.18571429 1.0
-0.24023445 -0.0064260266 -0.1 0.0
0.057142857 -0.069867276 -0.17689738 7.0
0.057142857 0.44130304 0.064561196 10.0
0.07591073 0.045710366 -0.1 0.0
0.090560816 0.37636214 -0.18571429 1.0
-0.23899822 0.18705499 -0.1 0.0
-0.2128565 0.4952972 -0.18185635 14.0
0.25313258 0.1971637 -0.1 0.0
0.2857143 -0.07696411 -0.12560928 3.0
0.2857143 0.08909917 -0.15043068 3.0
-0.057142857 -0.4109814 -0.1690686 6.0
0.2857143 0.058510896 -0.16952428 3.0
-0.2857143 -0.21659833 -0.1655947 5.0
0.067194134 0.23588295 -0.18571429 1.0
0.07747284 0.026034808 -0.1 0.0
0.2656026 -0.46812323 -0.18571429 1.0
0.15920225 0.4649566 0.18571429 13.0
0.07010828 0.3830059 -0.18571429 1.0
-0.13532634 -0.07912886 -0.18571429 1.0
-0.23851006 -0.5 -0.16218677 8.0
0.070639215 -0.24616762 -0.18571429 1.0
-0.1698069 0.2311083 -0.18571429 1.0
0.10176985 0.5 0.098020166 2.0
0.15669154 0.042392783 -0.18571429 1.0
-0.1289467 0.44872543 -0.18571429 1.0
0.19723164 -0.040269874 -0.1 0.0
-0.08608748 -0.38859326 -0.1 0.0
-0.2606108 0.09527452 -0.18571429 1.0
0.057142857 0.42850915 -0.055877753 10.0
0.27593827 -0.18440324 -0.10186799 15.0
-0.05839592 -0.16488262 -0.18571429 1.0
-0.18911932 -0.46692714 -0.18571429 1.0
-0.10731972 -0.2876607 -0.1 0.0
0.027295299 0.3788588 -0.18571429 1.0
-0.16922234 -0.046942487 -0.18571429 1.0
-0.18880412 -0.07105414 -0.18571429 1.0
0.057142857 0.4792111 0.06754923 10.0
0.13864712 -0.21179087 -0.1 0.0
-0.15430447 0.492773 -0.18364693 14.0
0.2857143 0.2162966 -0.16804455 3.0
0.057142857 -0.25396347 -0.12486714 7.0
-0.14659631 0.44972524 -0.18571429 1.0
-0.2857143 -0.15129992 -0.16720961 5.0
-0.2857143 0.335474 -0.15839602 5.0
-0.2729911 0.2911803 -0.18552 11.0
0.057142857 0.46214962 0.07407626 10.0
0.057142857 0.472104 -0.08583302 10.0
0.24752156 -0.12866224 -0.1 0.0
0.057142857 0.48461935 0.13159195 10.0
0.2857143 -0.024504507 -0.15186328 3.0
-0.28534815 0.25502297 -0.17331713 11.0
0.057142857 -0.12289402 -0.10518966 7.0
-0.07520355 -0.36364287 -0.18571429 1.0
-0.022963148 0.36466116 -0.18571429 1.0
-0.051175784 0.37741366 -0.1 0.0
0.08395833 0.36765376 -0.1 0.0
-0.12325314 0.2872693 -0.1 0.0
0.24533571 0.17048909 -0.1 0.0
0.043322735 0.33746427 -0.18571429 1.0
0.14250013 0.27435005 -0.18571429 1.0
0.2146246 0.5 0.13650678 2.0
-0.26816425 0.036046766 -0.1 0.0
-0.2606645 -0.46295395 -0.18571429 1.0
0.14686827 0.0631299 -0.1 0.0
0.28180695 -0.27771434 -0.1803921 9.0
0.16847517 0.41428572 -0.08815291 4.0
-0.057142857 -0.32476377 -0.12571228 6.0
-0.082507625 0.43453372 -0.18571429 1.0
-0.254976 -0.009741249 -0.18571429 1.0
0.26426467 0.41428572 -0.09843684 4.0
-0.19545549 0.13023157 -0.18571429 1.0
0.13175365 -0.059398357 -0.18571429 1.0
-0.2857143 0.04478904 -0.14460988 5.0
-0.057142857 -0.2770878 -0.1257068 6.0
0.11666963 0.3899181 -0.1 0.0
0.2349695 -0.26807505 -0.18571429 1.0
-0.08007929 -0.5 -0.11908519 8.0
0.20698759 0.5 0.025011472 2.0
0.0756568 -0.41828716 -0.18571429 1.0
0.10673791 0.18641986 -0.1 0.0
-0.23157595 -0.240721 -0.18571429 1.0
0.2857143 -0.41297442 -0.13336317 3.0
-0.14731601 0.2443704 -0.1 0.0
-0.1083031 0.18643379 -0.1 0.0
-0.17156489 0.5 -0.16550018 2.0
-0.21397765 -0.45936388 -0.1 0.0
-0.034917705 0.17361404 -0.148203 16.0
-0.057142857 -0.4887605 -0.1493 6.0
0.08214662 -0.2631309 -0.1 0.0
-0.08409279 -0.012986653 -0.18571429 1.0
0.057142857 0.08087387 -0.13775505 7.0
0.2857143 0.4824038 0.13944216 3.0
0.0970069 0.41428572 0.107131325 4.0
-0.057142857 -0.089751124 -0.16144522 6.0
0.06866631 -0.5 -0.12954508 8.0
-0.057142857 -0.15337896 -0.15678035 6.0
-0.057142857 -0.31990436 -0.14674681 6.0
-0.2857143 -0.10281563 -0.13869412 5.0
0.116389625 0.37392876 -0.1 0.0
-0.035990983 0.17278785 -0.17678916 16.0
-0.2128003 -0.29493484 -0.18571429 1.0
0.24059908 0.5 0.10938237 2.0
0.2857143 0.42725638 0.073364325 3.0
0.06754153 0.5 0.042899705 2.0
-0.24702394 0.3610579 -0.18571429 1.0
0.19465196 -0.38981444 -0.1 0.0
-0.19195803 0.23935564 -0.1 0.0
0.2322183 -0.04601806 -0.18571429 1.0
0.057142857 -0.41557273 -0.14377631 7.0
-0.11111671 -0.40282637 -0.1 0.0
-0.08559731 0.19279659 -0.18571429 1.0
0.10491375 0.5 0.11524758 2.0
-0.19483213 -0.17110962 -0.1 0.0
-0.20450257 0.20892353 -0.18571429 1.0
-0.26361978 0.25457767 -0.1 0.0
0.12928732 0.5 0.031146366 2.0
-0.049231153 0.19384463 -0.1 0.0
-0.15777497 -0.5 -0.16960013 8.0
0.17147814 -0.43356967 -0.1 0.0
0.25323412 0.105834186 -0.18571429 1.0
-0.062376387 0.18578286 -0.18571429 1.0
-0.16318159 0.48462364 -0.18571429 1.0
-0.1564869 0.3997092 -0.18571429 1.0
-0.07833125 0.4915742 -0.101355895 14.0
0.2857143 0.034705006 -0.128208 3.0
0.174064 0.29766935 -0.18571429 1.0
0.074537314 0.23133178 -0.1 0.0
-0.08534712 -0.07101961 -0.1 0.0
0.19065164 0.28618523 -0.1 0.0
-0.07214538 0.5 -0.15152144 2.0
0.17639318 -0.33831552 -0.1 0.0
0.0790461 0.5 0.16667949 2.0
0.057142857 -0.3428763 -0.1525609 7.0
-0.2857143 0.2940964 -0.11508238 5.0
0.27180642 0.41428572 0.16742566 4.0
0.2857143 0.4565462 0.14173914 3.0
-0.06322656 -0.3815261 -0.1 0.0
0.057336666 -0.20045708 -0.1 0.0
0.27689263 -0.47281232 -0.1845246 9.0
-0.057142857 -0.17324877 -0.14527687 6.0
0.2281494 0.5 -0.1659914 2.0
0.14168195 0.24395025 -0.18571429 1.0
-0.19749625 0.2915499 -0.1 0.0
-0.047699288 0.3495119 -0.18571429 1.0
0.082044095 -0.4591299 -0.1 0.0
-0.22484104 0.3968282 -0.1 0.0
0.09849787 -0.40533373 -0.1 0.0
0.23388706 0.5 0.056828465 2.0
0.10506648 0.29766077 -0.1 0.0
0.015162741 0.5 -0.1709196 2.0
0.2857143 -0.21811213 -0.15149848 3.0
0.23657557 0.21432489 -0.18571429 1.0
0.21856476 -0.39378184 -0.1 0.0
0.0717729 0.4698666 -0.18571429 1.0
0.12248467 0.5 0.17151576 2.0
0.18336076 -0.5 -0.15650025 8.0
0.07410308 0.19722375 -0.1 0.0
0.28489235 -0.3203033 -0.17603552 9.0
0.14946164 0.41428572 0.08241763 4.0
0.22485328 0.39078268 -0.1 0.0
0.08132219 0.41074184 -0.18571429 1.0
0.15841277 0.004822447 -0.1 0.0
-0.21606596 -0.32331488 -0.1 0.0
-0.09594627 -0.39726093 -0.18571429 1.0
0.2857143 -0.3066499 -0.124689996 3.0
0.06150081 0.5 0.11554824 2.0
0.057142857 -0.06369817 -0.16817313 7.0
-0.1821205 0.1627507 -0.1 0.0
0.15808198 0.30479512 -0.1 0.0
0.11168077 0.48547056 0.18571429 13.0
-0.19037598 -0.49804887 -0.1 0.0
0.18639214 0.5 -0.060128905 2.0
0.194135 0.2953344 -0.1 0.0
-0.18656509 0.34996954 -0.1 0.0
-0.08689689 -0.47071946 -0.18571429 1.0
-0.12869743 0.35691106 -0.1 0.0
0.054698117 0.14466724 -0.12845433 16.0
-0.21228284 0.2880493 -0.1 0.0
0.08958499 -0.31259373 -0.1 0.0
-0.2789546 -0.019618405 -0.102354005 12.0
0.10044679 0.42269036 0.18571429 13.0
-0.08905901 -0.24434318 -0.18571429 1.0
-0.1683529 0.4346102 -0.18571429 1.0
-0.28325486 0.32941207 -0.17938375 11.0
-0.14883281 -0.16876268 -0.1 0.0
-0.2857143 -0.002388968 -0.15450357 5.0
0.06848749 0.41428572 0.0643974 4.0
-0.015807895 0.4037878 -0.18571429 1.0
0.17217459 0.3979634 -0.18571429 1.0
-0.108451314 0.004696544 -0.1 0.0
0.057142857 -0.09088512 -0.117412224 7.0
-0.28224468 0.16713688 -0.18064038 11.0
0.2857143 0.48869637 0.14951232 3.0
0.13336031 -0.12732393 -0.1 0.0
0.087341145 -0.31492725 -0.18571429 1.0
-0.057142857 -0.4432198 -0.15906776 6.0
-0.12440119 0.42532745 -0.18571429 1.0
-0.2064678 -0.4437273 -0.1 0.0
-0.2857143 0.19072533 -0.11780803 5.0
0.11177693 -0.47099274 -0.18571429 1.0
-0.08852119 -0.2499499 -0.1 0.0
0.057142857 0.45170122 0.008235759 10.0
0.13185398 0.058673065 -0.18571429 1.0
0.22332296 0.068804465 -0.1 0.0
0.2855482 0.118303545 -0.113884784 15.0
-0.05737888 -0.27178594 -0.18571429 1.0
-0.11963527 -0.13385905 -0.1 0.0
0.2857143 -0.20124286 -0.14485595 3.0
-0.12680218 0.19906582 -0.1 0.0
0.1760761 0.16608912 -0.1 0.0
-0.07160273 -0.5 -0.14107041 8.0
0.20589913 0.5 0.17603686 2.0
0.24177147 0.5 -0.08417429 2.0
0.0780519 -0.02714242 -0.1 0.0
-0.2269619 -0.29872498 -0.18571429 1.0
0.25930518 0.2140486 -0.1 0.0
0.2857143 0.3943034 -0.16175091 3.0
-0.2809522 -0.30142772 -0.18184242 11.0
0.2857143 0.054234423 -0.11544645 3.0
0.08283033 0.16440146 -0.18571429 1.0
0.21104741 -0.49685422 -0.18571429 1.0
0.2857143 -0.11294815 -0.16689153 3.0
-0.14739476 -0.43297657 -0.18571429 1.0
0.057142857 -0.16632448 -0.124215856 7.0
0.14274353 -0.122967795 -0.18571429 1.0
0.22634125 0.1023023 -0.1 0.0
0.03594808 0.17285427 -0.14731133 16.0
-0.12605081 -0.42004007 -0.18571429 1.0
-0.28076816 -0.44976237 -0.10395063 12.0
0.106279686 0.5 -0.06940248 2.0
-0.1342098 0.36490247 -0.1 0.0
0.2713396 -0.33653384 -0.18571429 1.0
0.08678156 0.043659355 -0.1 0.0
0.16531783 -0.3087157 -0.18571429 1.0
0.2857143 0.47214216 0.124460086 3.0
0.18941228 -0.45499736 -0.1 0.0
-0.27824932 -0.16367984 -0.10184839 12.0
0.07426449 -0.2859567 -0.18571429 1.0
0.057142857 0.4949416 0.10647458 10.0
-0.06155134 0.5 -0.12652098 2.0
-0.28071275 -0.0009639359 -0.103686735 12.0
-0.28385657 0.047657877 -0.17822438 11.0
-0.14478236 -0.18923439 -0.18571429 1.0
0.102168 0.32866082 -0.1 0.0
0.0055051814 0.36738968 -0.18571429 1.0
-0.11691468 -0.35021773 -0.18571429 1.0
-0.14749141 -0.1180098 -0.1 0.0
0.022958634 0.19339971 -0.18571429 1.0
0.057142857 0.017979426 -0.17256123 7.0
-0.12985669 -0.09079115 -0.18571429 1.0
-0.1524006 -0.09623529 -0.1 0.0
-0.27685922 0.30261388 -0.10115196 12.0
0.20013936 -0.35721153 -0.1 0.0
-0.2663705 -0.23600613 -0.18571429 1.0
0.106315166 0.38329288 -0.1 0.0
0.2696918 0.41428572 0.10514323 4.0
-0.27184728 -0.32275406 -0.18566142 11.0
-0.17469761 0.46098453 -0.1 0.0
0.09355734 0.44987994 -0.18571429 1.0
0.057142857 0.11554477 -0.14877921 7.0
-0.023470571 0.39027897 -0.18571429 1.0
0.28224793 0.19239265 -0.10591721 15.0
0.2828938 0.04487071 -0.107476495 15.0
0.21441333 0.12140111 -0.18571429 1.0
0.08843765 0.41428572 0.11231811 4.0
0.2857143 0.1969717 -0.123957485 3.0
-0.20766203 -0.4330367 -0.1 0.0
0.16818222 0.5 0.021261204 2.0
0.09898361 -0.33655795 -0.1 0.0
-0.14003709 0.1695379 -0.18571429 1.0
-0.24051322 0.44715375 -0.18571429 1.0
-0.19816533 0.22779751 -0.18571429 1.0
0.057142857 -0.08623381 -0.15517692 7.0
0.22254281 -0.22287168 -0.18571429 1.0
0.20020789 -0.23516497 -0.1 0.0
0.057142857 -0.06817835 -0.15694425 7.0
0.057142857 -0.17078777 -0.17738704 7.0
0.022613151 0.25833786 -0.18571429 1.0
0.16448325 0.2412069 -0.1 0.0
0.07167579 -0.5 -0.15072708 8.0
-0.030338783 0.47880036 -0.1 0.0
0.13537264 0.0814867 -0.18571429 1.0
0.07327492 0.41428572 -0.07210673 4.0
0.057142857 0.4677808 0.1214809 10.0
-0.28500256 0.45206028 -0.11083199 12.0
0.22267361 0.056030817 -0.1 0.0
0.057142857 0.46112627 0.13189836 10.0
0.1732166 -0.307782 -0.1 0.0
0.15877376 -0.06705664 -0.18571429 1.0
0.0003948624 0.18558106 -0.17961751 16.0
0.08445747 0.281633 -0.1 0.0
0.015700683 0.36889073 -0.18571429 1.0
0.04926899 0.23377535 -0.1 0.0
-0.25262362 0.19941998 -0.18571429 1.0
0.25848123 0.058545005 -0.18571429 1.0
-0.042532485 0.23401043 -0.18571429 1.0
-0.2845046 0.31500828 -0.10870823 12.0
-0.12849931 -0.114585586 -0.18571429 1.0
-0.28552666 -0.22996049 -0.17265132 11.0
-0.11559587 0.12599535 -0.1 0.0
0.2663023 0.41428572 0.07827463 4.0
-0.04923465 0.19543324 -0.18571429 1.0
0.2094715 -0.40442848 -0.18571429 1.0
0.2857143 0.4684646 -0.08088283 3.0
0.22849923 -0.5 -0.14553194 8.0
0.11216642 -0.33909854 -0.18571429 1.0
0.0945842 -0.43540186 -0.18571429 1.0
-0.06442579 0.41578752 -0.18571429 1.0
0.2857143 0.36059704 -0.14794543 3.0
0.09898575 -0.33570737 -0.18571429 1.0
0.14334878 0.41428572 -0.05094321 4.0
-0.06989417 0.049579583 -0.1 0.0
0.057142857 0.021528907 -0.11613326 7.0
0.031998567 0.28756356 -0.1 0.0
-0.11576288 0.28394067 -0.18571429 1.0
0.25137 0.41428572 0.17112501 4.0
0.09062753 -0.5 -0.109757416 8.0
-0.24400061 0.096864216 -0.18571429 1.0
0.141732 -0.10813446 -0.1 0.0
