-0.33333334 0.23211108 -0.18869917 9.0
0.33333334 0.0031475346 0.15845715 8.0
-0.22424127 0.06309276 -0.5 1.0
0.23257965 -0.19119765 0.25 5.0
-0.5 -0.2609202 0.4143632 3.0
-0.5 -0.2350902 0.49366194 3.0
0.04243176 0.086482435 0.25 5.0
-0.48341066 -0.3757628 -0.5 1.0
-0.5 0.37631914 0.16692275 3.0
0.5 -0.22119862 -0.22571225 0.0
-0.16599579 -0.12010884 0.5 2.0
0.33333334 -0.09783823 0.18438393 8.0
-0.33333334 -0.22024179 -0.035140283 9.0
0.052379295 -0.17567521 -0.5 1.0
-0.5 0.2875844 -0.04887264 3.0
-0.18729202 -0.37428048 0.25 5.0
0.2880283 0.5 -0.44219533 6.0
-0.37595958 -0.28573376 -0.5 1.0
0.3539693 0.07048815 -0.5 1.0
-0.5 -0.44685766 0.31914845 3.0
0.4032903 0.5 -0.41471177 6.0
0.5 0.09187937 -0.3733998 0.0
0.19030555 -0.3586283 -0.25 4.0
-0.5 -0.003883309 0.44269013 3.0
0.5 0.018146744 -0.46952888 0.0
0.121758565 -0.36686197 0.5 2.0
0.5 -0.05857571 0.17143425 0.0
-0.18114936 0.12090561 0.25 5.0
-0.33333334 -0.05232609 0.11222367 9.0
-0.5 0.09338874 -0.3248715 3.0
-0.18315761 -0.4941575 -0.25520834 4.0
0.33333334 0.026768284 -0.028996546 8.0
-0.5 -0.31341252 0.33740753 3.0
0.5 -0.17305788 0.19942491 0.0
0.5 -0.38912624 0.39515835 0.0
-0.33333334 -0.22553176 -0.05920603 9.0
-0.5 -0.4786062 -0.20202054 3.0
0.49070632 0.5 0.41975117 6.0
0.16187511 -0.31645834 -0.25 4.0
-0.5 -0.06465965 0.028647779 3.0
0.10795736 -0.5 -0.2731678 7.0
-0.3883841 0.38384894 0.5 2.0
0.44990426 0.5 -0.47285226 6.0
-0.11980707 -0.07702372 0.5 2.0
-0.33333334 -0.3940494 -0.09795884 9.0
0.33333334 0.31423318 0.17862073 8.0
-0.33333334 0.2369405 0.22680952 9.0
0.2458687 -0.5 -0.43269682 7.0
0.5 0.10027074 0.2856782 0.0
-0.3105229 0.03672761 -0.25 4.0
0.33317852 -0.40501684 -0.5 1.0
-0.118527465 -0.15848902 0.5 2.0
-0.33333334 -0.38604847 -0.13614526 9.0
-0.17327598 0.2867875 0.25 5.0
0.4272578 0.5 0.3337403 6.0
-0.006730693 0.13455601 -0.5 1.0
-0.4403653 -0.14853194 -0.5 1.0
0.43861574 -0.5 0.42536494 7.0
0.5 -0.21399699 -0.46850884 0.0
-0.34040013 -0.21304607 0.5 2.0
0.106665075 -0.18995856 -0.25 4.0
-0.12762225 0.48858714 0.25520834 5.0
0.08484564 -0.5 -0.45844036 7.0
-0.33333334 0.23028864 0.20200814 9.0
0.33333334 0.29060858 -0.0966802 8.0
-0.0016556134 -0.030244613 -0.25 4.0
0.3032699 0.29282403 -0.5 1.0
0.5 0.29447252 -0.0823325 0.0
0.14640924 -0.040671237 -0.5 1.0
-0.5 0.426823 -0.45005795 3.0
0.5 -0.35940495 -0.16206568 0.0
-0.5 0.41350114 -0.17707959 3.0
0.33333334 -0.31248996 -0.11215514 8.0
0.5 -0.3173272 0.24858926 0.0
0.5 0.19179627 -0.010880555 0.0
-0.06794904 0.25236663 -0.25 4.0
-0.34358358 -0.5 0.08520691 7.0
-0.3993244 0.4941294 -0.5 1.0
-0.34195527 -0.5 0.13306592 7.0
-0.5 -0.20062245 0.4824495 3.0
-0.5 0.43611383 -0.33056805 3.0
0.2003497 0.27626362 0.25 5.0
-0.27240446 -0.074505664 -0.25 4.0
0.1419312 0.3587542 -0.5 1.0
0.5 0.42756137 0.041838173 0.0
0.21463193 0.089703545 -0.5 1.0
-0.5 0.26288855 0.07371545 3.0
-0.11486807 -0.3692415 0.25 5.0
0.46845907 -0.5 0.035547473 7.0
-0.04009306 0.2640264 -0.5 1.0
-0.35586444 0.33267254 -0.5 1.0
-0.20911716 0.37336877 0.5 2.0
-0.22643574 -0.07238785 -0.5 1.0
-0.30977523 -0.5 -0.3438093 7.0
0.47527695 0.27575654 -0.5 1.0
-0.13243593 -0.33899966 -0.5 1.0
-0.16767637 -0.5 0.46968085 7.0
0.33333334 0.042770587 -0.12155854 8.0
0.5 0.44725627 -0.22021425 0.0
0.5 0.09096289 -0.12352062 0.0
0.05815589 -0.44361854 -0.25 4.0
-0.27822557 0.5 -0.38891855 6.0
0.17933682 -0.48144788 -0.5 1.0
-0.22149223 0.39515838 -0.25 4.0
0.32043913 -0.11068364 0.5 2.0
0.05443257 -0.30175892 0.25 5.0
-0.45523122 0.5 -0.2666628 6.0
-0.0009740944 -0.36063206 -0.5 1.0
0.20049836 0.5 0.43203855 6.0
-0.3359107 0.5 0.28547883 6.0
0.24642599 0.5 0.38116196 6.0
0.33327997 0.18090257 -0.25 4.0
-0.4504162 0.16030908 0.5 2.0
0.3316805 -0.10555006 -0.25 4.0
0.3981126 0.14542934 0.5 2.0
-0.16648687 0.5 -0.492589 6.0
0.5 0.3353564 0.39962137 0.0
0.104853734 -0.06520912 -0.25 4.0
0.5 -0.1783084 -0.40233073 0.0
0.5 -0.21585596 -0.37572652 0.0
0.5 0.1316641 0.100216314 0.0
-0.27496573 -0.5 -0.3764839 7.0
0.5 -0.34619346 -0.21957433 0.0
-0.009502208 0.45621186 -0.25 4.0
0.14818479 -0.09063219 -0.5 1.0
0.4489225 0.46470517 0.5 2.0
0.23318624 0.03015312 -0.5 1.0
-0.067514144 -0.5 0.25783026 7.0
-0.27540153 0.3186519 0.25 5.0
-0.33333334 0.32177958 0.051165976 9.0
-0.41962028 -0.5 -0.002274495 7.0
0.29993808 0.38160276 -0.25 4.0
-0.33333334 0.3822352 -0.24832603 9.0
-0.5 -0.03876062 0.33264405 3.0
-0.34293532 0.5 -0.080582365 6.0
-0.069105744 0.5 0.37047175 6.0
0.08482942 -0.5 0.41065574 7.0
-0.39797568 0.34990132 -0.5 1.0
0.32655534 -0.47531444 0.25520834 5.0
0.5 0.3214011 -0.1558763 0.0
-0.14897303 0.5 -0.2555781 6.0
-0.5 0.045318313 -0.2325436 3.0
-0.5 -0.21627274 -0.31423718 3.0
0.032470256 -0.5 -0.4134031 7.0
0.32064342 0.23835887 0.25 5.0
0.5 0.44089726 0.07649358 0.0
0.5 0.049296875 0.02495429 0.0
0.33333334 0.1688141 0.18164217 8.0
0.21628405 -0.15778095 0.5 2.0
-0.27947682 0.13587365 -0.5 1.0
-0.5 0.19063534 -0.256906 3.0
0.3840071 0.18582572 0.5 2.0
-0.16035719 -0.39507002 -0.25 4.0
-0.17194043 0.28838652 0.5 2.0
-0.32086074 -0.5 0.40130043 7.0
0.47390297 -0.33276546 -0.5 1.0
0.36826313 -0.25168592 -0.5 1.0
0.23271084 -0.20710512 -0.5 1.0
0.3494717 0.31285146 -0.5 1.0
-0.19352898 -0.5 0.39412028 7.0
0.42382577 -0.5 0.181771 7.0
0.4519894 -0.5 -0.3263382 7.0
0.31210464 0.5 0.46611986 6.0
0.33333334 0.20400351 0.0075810957 8.0
0.18138188 0.3601561 -0.25 4.0
0.49744138 0.13647065 -0.5 1.0
0.10119575 0.5 0.38017792 6.0
0.47310272 -0.40670365 -0.5 1.0
0.5 -0.047233056 -0.4209361 0.0
-0.5 -0.31164527 0.2908217 3.0
-0.4522549 -0.5 0.02647322 7.0
0.22867183 -0.41017884 0.5 2.0
-0.11528395 0.5 -0.30466112 6.0
-0.4320759 -0.5 -0.104199655 7.0
0.08558068 -0.5 0.26012835 7.0
-0.475429 0.5 0.20845956 6.0
0.014254302 0.15025364 -0.25 4.0
0.23408453 0.0055694566 0.25 5.0
0.33333334 0.32589257 -0.11617243 8.0
0.18969649 0.45269933 0.25 5.0
-0.5 -0.06552566 -0.4935491 3.0
-0.33333334 -0.40729257 -0.040234245 9.0
-0.13751087 -0.45943284 -0.5 1.0
0.5 0.03386102 0.33321065 0.0
0.5 0.4634586 -0.096867874 0.0
0.47516352 -0.30397663 0.49479166 2.0
0.33333334 0.27656493 0.033637267 8.0
-0.49756345 0.4448454 0.49479166 2.0
0.2573206 -0.5 0.43460307 7.0
-0.3793723 0.5 0.20488918 6.0
0.5 -0.33028865 -0.18528642 0.0
0.5 -0.31980827 0.21941751 0.0
0.33333334 0.4090087 0.17357317 8.0
0.45498872 -0.43998167 -0.5 1.0
0.16853774 -0.11507867 -0.5 1.0
-0.5 -0.006036329 0.3180217 3.0
-0.12591434 -0.5 0.27612412 7.0
0.10019224 -0.04153091 -0.25 4.0
0.29863563 -0.5 0.25712216 7.0
-0.5 0.045828387 -0.30480233 3.0
0.22295402 0.26182634 -0.5 1.0
0.19630818 0.11367443 0.25 5.0
0.19184284 -0.5 -0.4609939 7.0
-0.21362069 -0.5 -0.4040932 7.0
-0.2939112 0.3645121 -0.5 1.0
-0.012690729 -0.13497353 -0.5 1.0
0.47415894 0.22082011 0.49479166 2.0
-0.18640707 -0.09850954 0.25 5.0
-0.33333334 0.36447096 0.015947793 9.0
0.03115471 -0.19847591 -0.5 1.0
0.19587657 0.5 0.25787967 6.0
-0.42537242 -0.030674694 -0.5 1.0
-0.13890684 0.33298594 0.25 5.0
0.5 0.34743658 0.16291091 0.0
-0.5 -0.03423623 -0.10087512 3.0
0.33333334 0.18309739 -0.05229588 8.0
-0.137923 -0.048043724 0.25 5.0
0.39129475 0.3439967 -0.5 1.0
0.5 0.023033854 0.044711728 0.0
-0.5 -0.09536139 -0.11486376 3.0
-0.12531917 0.18457747 0.5 2.0
0.33333334 0.17278484 0.011958959 8.0
-0.08910872 -0.23061998 -0.5 1.0
0.5 -0.16430937 -0.38228086 0.0
0.3103688 -0.4419728 0.25 5.0
0.17088443 0.21640985 -0.25 4.0
0.063591406 0.37835512 -0.5 1.0
-0.49080238 0.5 0.34508628 6.0
-0.33333334 -0.3214528 -0.04342988 9.0
0.33333334 0.38375556 0.085547976 8.0
-0.5 -0.17502722 -0.41136622 3.0
-0.5 -0.28228244 -0.38068292 3.0
-0.5 -0.4338959 0.20908268 3.0
-0.33333334 -0.36625063 -0.095813364 9.0
0.33333334 0.4658813 -0.058561057 8.0
0.03775106 -0.14882363 0.5 2.0
-0.08520078 -0.21221714 0.25 5.0
-0.23036505 -0.5 -0.28350192 7.0
-0.5 -0.11973805 0.35300794 3.0
-0.5 -0.36687025 -0.4871288 3.0
0.5 0.29125717 -0.042144924 0.0
-0.31205845 -0.35900417 -0.5 1.0
0.23126976 0.40806007 -0.25 4.0
0.33333334 0.026673164 0.1583174 8.0
0.47348154 -0.023941524 -0.5 1.0
0.47615343 -0.5 0.14185245 7.0
0.33333334 -0.44694203 -0.022419522 8.0
0.5 -0.3374449 -0.20168377 0.0
0.3702978 -0.5 -0.32425305 7.0
-0.28949437 0.26035908 -0.25 4.0
-0.14309113 0.100211725 -0.25 4.0
-0.5 -0.07807322 -0.23033467 3.0
0.3057385 -0.431746 -0.25 4.0
0.5 0.34589887 0.012632425 0.0
-0.28781047 0.063794516 0.25 5.0
-0.10832702 -0.15998115 -0.25 4.0
0.5 0.4396589 -0.082822174 0.0
0.5 0.014188861 0.45146024 0.0
-0.1755091 -0.04694325 -0.25 4.0
-0.33333334 0.004455217 -0.20186096 9.0
-0.0042150333 0.5 0.40403846 6.0
-0.5 0.2521291 0.28274953 3.0
-0.07487837 0.1646373 0.25 5.0
-0.40838915 0.18500195 0.5 2.0
0.49788204 -0.4390428 0.49479166 2.0
-0.5 -0.053157758 -0.39617914 3.0
0.5 -0.23914787 -0.009255278 0.0
0.36288413 -0.5 0.45248163 7.0
-0.5 -0.2279845 -0.13010594 3.0
-0.084632754 -0.2005942 -0.25 4.0
0.5 0.07953586 0.27553025 0.0
-0.24355048 -0.09253083 -0.25 4.0
0.5 -0.06620881 -0.1012992 0.0
0.5 0.37054121 -0.07687213 0.0
-0.33710125 -0.41421273 -0.5 1.0
0.33333334 -0.062185895 -0.18441209 8.0
0.23913518 0.1773757 -0.25 4.0
0.24464719 0.23275475 0.5 2.0
-0.46931067 -0.5 0.0112761455 7.0
0.14671269 -0.009559983 -0.5 1.0
-0.10847751 -0.39228186 0.25 5.0
0.04451959 -0.34266078 -0.5 1.0
0.5 0.35442767 -0.0936253 0.0
0.33854166 0.48649508 0.02996396 8.0
-0.5 -0.25483057 0.085268795 3.0
-0.3093114 0.5 -0.46851942 6.0
-0.33333334 0.35404912 -0.1837532 9.0
-0.33333334 0.27888957 0.19948691 9.0
0.06196358 0.12972908 -0.25 4.0
-0.34130055 0.5 -0.42266157 6.0
-0.5 -0.26699272 -0.118129864 3.0
0.20548269 0.5 0.34996468 6.0
0.03435706 0.20923783 -0.25 4.0
0.5 -0.45865884 -0.3490069 0.0
0.22939779 -0.25122732 0.25 5.0
0.13640118 -0.40632302 0.25 5.0
-0.28420967 0.46311414 0.5 2.0
0.11150884 0.2374021 0.5 2.0
-0.33333334 -0.2988114 0.03775947 9.0
-0.09504452 0.09178584 0.25 5.0
0.33333334 -0.3268911 0.026860857 8.0
-0.07401231 0.05506321 0.5 2.0
-0.078640684 0.42010537 -0.25 4.0
-0.22024071 -0.5 0.39624655 7.0
-0.5 0.38735762 0.05199481 3.0
0.25530827 0.38769853 -0.5 1.0
-0.5 0.21253143 -0.45517212 3.0
-0.14120649 0.379386 -0.5 1.0
0.4633113 -0.5 -0.1677752 7.0
0.33333334 -0.32270315 -0.14134732 8.0
-0.357841 -0.23617883 -0.5 1.0
-0.1462812 -0.3126326 0.5 2.0
0.2924369 0.14537975 -0.25 4.0
-0.17107098 0.5 0.40856597 6.0
-0.031616263 0.41024062 0.25 5.0
0.09669894 0.082611196 -0.25 4.0
0.2977034 0.091731384 -0.5 1.0
-0.33333334 -0.05867113 -0.19923833 9.0
-0.12828155 -0.4395694 -0.25 4.0
-0.44523227 0.5 0.13135889 6.0
-0.09439241 0.03074394 -0.5 1.0
-0.5 -0.21603306 0.41065124 3.0
-0.35284945 -0.38587463 -0.5 1.0
0.33333334 0.38509926 0.21964765 8.0
-0.5 0.015237312 -0.3593006 3.0
0.05677284 -0.20215021 -0.25 4.0
-0.5 0.0028709539 -0.04907895 3.0
0.049846616 0.22677189 0.25 5.0
0.19481115 0.1993126 -0.25 4.0
0.16409801 0.4093722 -0.5 1.0
0.33333334 0.24879673 0.028029948 8.0
0.47683242 0.300394 -0.5 1.0
0.34050295 0.5 -0.14384319 6.0
0.5 0.03394255 0.441387 0.0
-0.22333425 -0.40778866 -0.5 1.0
-0.40771085 -0.20181842 -0.5 1.0
0.2144078 0.04342391 -0.5 1.0
-0.33333334 0.22408776 0.17894141 9.0
-0.31766862 -0.3601362 0.5 2.0
-0.3389856 -0.5 -0.04598033 7.0
0.13488388 -0.23860812 -0.5 1.0
0.5 0.4304911 0.3441798 0.0
-0.293849 0.46875 0.2533493 6.0
0.397672 0.3509136 0.5 2.0
-0.189586 -0.364647 -0.5 1.0
0.33813995 -0.5 0.3260744 7.0
-0.21817802 0.22032595 0.5 2.0
-0.24462658 -0.35907555 -0.25 4.0
-0.49237984 0.5 -0.035039797 6.0
0.44168547 -0.5 -0.19753173 7.0
0.26351193 0.48788583 -0.25520834 4.0
-0.15140043 0.23709746 0.5 2.0
-0.11157479 0.15249076 -0.5 1.0
0.5 0.3533715 0.27879333 0.0
0.03297917 0.23177369 -0.25 4.0
-0.1286502 0.21152985 0.5 2.0
0.24278592 -0.077266455 0.25 5.0
-0.30591434 0.2600352 -0.5 1.0
0.2718631 0.47829613 0.49479166 2.0
-0.054287508 -0.39476877 0.5 2.0
0.17786801 0.5 0.27863094 6.0
-0.5 0.08014175 -0.2791837 3.0
-0.33333334 -0.09790318 0.107990295 9.0
0.12359014 0.15870216 0.25 5.0
-0.39041576 0.44513974 0.5 2.0
-0.25609276 0.08272438 -0.5 1.0
-0.021847546 -0.5 0.3409669 7.0
-0.315445 -0.23827896 -0.5 1.0
-0.5 0.3435403 -0.07750242 3.0
0.04451023 0.5 0.42846295 6.0
-0.11430989 0.3263612 -0.25 4.0
-0.07170132 0.49366996 -0.5 1.0
-0.33333334 -0.26639298 0.22598472 9.0
0.29192525 -0.3237801 -0.5 1.0
0.5 -0.08215015 -0.38392547 0.0
-0.33333334 0.18640767 -0.24896118 9.0
-0.5 0.44867468 0.17015743 3.0
0.33333334 -0.43633938 -0.13696603 8.0
0.1321395 -0.4808618 0.25520834 5.0
-0.33333334 0.4395042 0.18754737 9.0
0.33333334 -0.045555335 0.24873763 8.0
-0.5 -0.10816356 -0.37630367 3.0
-0.5 0.15207851 -0.20240682 3.0
0.01857202 -0.26106128 -0.5 1.0
0.40922764 -0.5 -0.302849 7.0
-0.19149584 -0.5 -0.44651568 7.0
-0.22742964 0.24939385 -0.5 1.0
-0.5 0.386923 0.083191305 3.0
-0.21254545 0.27219164 0.5 2.0
0.33333334 0.23706475 -0.15507346 8.0
-0.23196137 -0.21595298 -0.5 1.0
-0.5 0.10870656 0.30609983 3.0
-0.48518416 -0.41738003 0.49479166 2.0
-0.5 -0.009731812 0.27319926 3.0
-0.33333334 -0.3988096 0.21758275 9.0
0.5 -0.3452057 0.43982053 0.0
-0.25903615 -0.30038455 0.5 2.0
-0.29256746 0.038352452 0.25 5.0
0.47039226 0.5 0.05196316 6.0
-0.48922452 0.27626193 -0.5 1.0
-0.26318994 -0.28977224 -0.25 4.0
0.034149397 0.5 0.45020875 6.0
-0.33333334 -0.41646653 0.055515934 9.0
-0.19298479 -0.5 -0.39194372 7.0
-0.23086649 0.16164665 -0.25 4.0
0.33333334 -0.4168699 0.06032054 8.0
0.42217085 -0.11464141 0.5 2.0
-0.5 -0.083270594 0.24015918 3.0
0.17213073 0.25532278 0.25 5.0
0.48847678 0.23557904 -0.5 1.0
-0.5 -0.24453145 -0.32183132 3.0
0.026437504 -0.5 -0.25661996 7.0
-0.39072815 0.5 0.09520739 6.0
0.5 -0.36056706 0.08319951 0.0
-0.33333334 -0.34826908 -0.11100923 9.0
0.5 0.4735919 -0.43307233 0.0
-0.43693334 0.22197197 0.5 2.0
0.44424742 -0.5 0.21177885 7.0
-0.32400438 0.5 -0.38074538 6.0
0.10826946 -0.45530447 -0.25 4.0
0.035186496 0.21218339 0.5 2.0
-0.3640677 0.05887397 -0.5 1.0
-0.33333334 -0.23910874 -0.07882919 9.0
0.25240213 0.49051774 -0.5 1.0
0.33854166 0.47215044 -0.03653982 8.0
-0.41471237 0.5 0.09023558 6.0
0.19949417 -0.23238607 0.5 2.0
-0.5 -0.44018257 -0.10535971 3.0
0.49950182 -0.5 -0.09508862 7.0
0.5 -0.22245042 0.12916559 0.0
0.19860317 -0.32059205 0.5 2.0
0.09067685 0.43951616 0.25 5.0
0.42965946 0.3969759 -0.5 1.0
0.5 -0.25738797 0.21698287 0.0
-0.16704652 0.39992055 -0.25 4.0
-0.30006215 -0.1414249 0.5 2.0
0.33333334 -0.2969164 -0.035379924 8.0
-0.27665043 0.13042563 0.25 5.0
-0.10513693 -0.5 0.38110355 7.0
0.28832573 -0.46875 0.49929136 7.0
-0.13703276 0.43338704 0.5 2.0
0.33854166 0.4958176 -0.116175435 8.0
-0.5 -0.35569397 0.20496324 3.0
-0.33333334 0.17856367 0.01970393 9.0
0.31783915 -0.5 0.33551392 7.0
-0.0026495233 -0.46875 -0.25356853 7.0
-0.15880744 -0.5 -0.45899454 7.0
-0.17361467 -0.24385537 -0.25 4.0
0.5 0.23327884 -0.15881376 0.0
0.47807425 -0.5 -0.027723279 7.0
-0.14190744 0.13646251 0.5 2.0
0.33333334 0.2688821 -0.11814274 8.0
0.5 0.07934968 -0.20799275 0.0
-0.5 0.07192791 -0.30202723 3.0
-0.318281 0.12741531 -0.5 1.0
0.33333334 -0.1792579 0.19765055 8.0
-0.027778754 -0.38981903 0.25 5.0
0.5 -0.07963021 -0.34586406 0.0
0.030686777 -0.044584863 0.5 2.0
0.059679568 0.13367918 -0.5 1.0
0.23500112 0.123483196 0.5 2.0
-0.5 0.040687 -0.17408551 3.0
0.106436945 0.22704598 -0.25 4.0
-0.3302319 0.31677592 0.25 5.0
-0.18907051 0.5 0.37208417 6.0
0.26256087 -0.19231881 0.25 5.0
-0.11872561 0.109659865 -0.25 4.0
-0.41644248 -0.5 -0.199528 7.0
0.20719689 0.23156235 -0.25 4.0
0.5 -0.26741835 -0.30171192 0.0
0.009671063 -0.2772083 -0.25 4.0
0.5 0.325958 0.17574605 0.0
0.33333334 0.05198691 0.22188422 8.0
-0.05142425 0.2725664 0.25 5.0
-0.43600163 0.5 0.028652092 6.0
-0.5 0.35511148 -0.43676633 3.0
0.5 0.36861336 -0.34955236 0.0
0.2576027 -0.36635953 -0.5 1.0
-0.33333334 -0.30264443 -0.16472548 9.0
-0.5 0.2730921 -0.35387695 3.0
-0.2619009 -0.09317577 0.5 2.0
0.12549314 -0.49490803 -0.25520834 4.0
0.33333334 0.14769399 0.20626141 8.0
0.33333334 0.39118755 -0.17488477 8.0
0.45515898 -0.094504476 0.5 2.0
0.5 0.22464733 0.45696056 0.0
-0.13271183 -0.4672749 0.25 5.0
-0.33333334 0.21250482 -0.20045954 9.0
0.26123703 0.14017662 0.25 5.0
-0.33333334 -0.06701453 0.049332187 9.0
-0.4767944 0.5 -0.28528583 6.0
-0.21420746 0.5 -0.324739 6.0
0.5 0.4305439 -0.3216878 0.0
-0.5 -0.019136645 0.29810056 3.0
0.23372938 -0.34601614 0.5 2.0
0.21344 -0.38862267 0.5 2.0
0.33333334 -0.38139498 -0.23245554 8.0
-0.33333334 -0.13608466 0.16036078 9.0
-0.047201466 -0.43857765 0.25 5.0
0.4696515 0.10108759 -0.5 1.0
-0.33854166 0.47777116 -0.12595594 9.0
0.20184149 0.005699233 -0.5 1.0
-0.27764863 0.49382356 0.25520834 5.0
0.37674212 -0.5 -0.47371447 7.0
-0.098680206 -0.059328817 0.5 2.0
0.5 -0.36853138 0.23529114 0.0
-0.20342791 -0.047689687 -0.25 4.0
-0.5 -0.35140234 0.3496548 3.0
0.2951836 -0.28807342 0.5 2.0
-0.5 -0.09771399 -0.079502106 3.0
-0.035773702 -0.5 -0.40356392 7.0
0.20917116 0.5 -0.48418728 6.0
0.13422048 -0.06075054 0.25 5.0
0.10902507 -0.5 0.33214235 7.0
-0.19970798 -0.14608741 -0.5 1.0
0.118027225 0.5 0.33543092 6.0
0.06945333 0.42862564 0.25 5.0
0.2351224 -0.4315831 -0.25 4.0
-0.12867513 -0.29017594 0.5 2.0
-0.33333334 0.1504988 -0.15051648 9.0
-0.13319422 -0.46117127 0.5 2.0
-0.23657344 -0.18966776 0.25 5.0
0.13812883 0.10457652 0.5 2.0
-0.3243329 0.5 0.4271466 6.0
-0.24582645 -0.41804612 -0.5 1.0
0.4777556 -0.2144129 -0.5 1.0
0.36857077 0.5 -0.17354317 6.0
-0.10997013 -0.04685282 0.25 5.0
0.06664243 -0.5 -0.3979246 7.0
0.5 0.29084396 0.25753063 0.0
-0.24064502 -0.5 0.31041417 7.0
0.5 -0.39129475 0.35388893 0.0
-0.33333334 0.17258655 -0.003583143 9.0
0.33333334 0.06132338 0.09375416 8.0
-0.30150127 0.26384205 0.5 2.0
0.5 0.16482508 0.01416962 0.0
0.47758257 0.5 0.27503565 6.0
-0.5 0.088754244 -0.09566207 3.0
0.45841923 0.5 0.2616836 6.0
-0.33333334 -0.10114962 0.08279962 9.0
0.22191097 0.08365933 0.25 5.0
-0.24454343 -0.45781446 0.25 5.0
-0.2591825 0.06566644 0.25 5.0
0.5 -0.29249752 0.47234824 0.0
-0.375204 -0.41262394 -0.5 1.0
-0.3458883 0.3568383 0.5 2.0
-0.28897402 -0.24175853 -0.5 1.0
-0.5 -0.13405608 0.29086578 3.0
-0.27840635 0.5 -0.46466708 6.0
-0.33333334 0.31727073 -0.12382268 9.0
-0.041325685 -0.5 -0.30580106 7.0
0.5 0.021447804 0.25742254 0.0
-0.5 0.36843207 0.06750054 3.0
-0.09108239 -0.26586866 -0.5 1.0
0.5 -0.11801386 -0.29824364 0.0
-0.13175495 -0.02302174 0.25 5.0
0.33333334 0.29056838 0.24026492 8.0
0.25671664 0.41560134 -0.25 4.0
0.105677955 0.052174192 -0.5 1.0
-0.5 0.3996965 0.3657739 3.0
-0.5 -0.37544587 -0.24779245 3.0
-0.28836647 -0.4399241 0.25 5.0
-0.34322077 0.5 0.1990899 6.0
-0.015729455 0.097543515 -0.25 4.0
0.16697456 -0.26461798 0.5 2.0
-0.2533072 0.5 -0.4049496 6.0
0.0040334193 -0.41747892 0.5 2.0
-0.5 -0.35642093 0.44816855 3.0
-0.3989477 0.5 -0.08034069 6.0
0.01789454 0.5 -0.2919759 6.0
0.5 0.111663036 0.11479818 0.0
0.5 -0.058368955 -0.11128905 0.0
-0.02483127 0.00487886 0.5 2.0
0.5 0.4419398 -0.4319528 0.0
-0.15822996 0.23805657 0.25 5.0
-0.5 -0.11958988 0.02763784 3.0
0.16077648 0.2001876 -0.5 1.0
0.5 0.43588024 0.29759333 0.0
-0.23439553 -0.5 -0.25659382 7.0
0.5 0.30584392 -0.49912906 0.0
0.010353425 0.3502645 -0.25 4.0
0.45215106 0.17522362 0.5 2.0
-0.06851711 0.12146589 0.25 5.0
0.05352863 -0.3790278 0.25 5.0
-0.1655332 -0.5 -0.318668 7.0
-0.27247703 -0.09760494 -0.25 4.0
0.5 0.29492489 -0.31905308 0.0
-0.2977528 0.4417239 0.25 5.0
-0.18067442 0.034281608 0.5 2.0
0.33333334 -0.2756305 0.1964609 8.0
0.11395611 0.13409202 0.25 5.0
0.11098123 0.37249812 -0.25 4.0
-0.16819127 0.3456032 -0.25 4.0
0.14724463 0.17188708 0.25 5.0
-0.1696689 -0.4162102 -0.5 1.0
-0.33333334 0.13354278 -0.21806666 9.0
-0.0035012113 0.5 0.45382738 6.0
0.5 0.37952614 -0.44299522 0.0
-0.09714876 -0.37902927 -0.5 1.0
0.5 0.4011126 0.3043236 0.0
-0.33251238 -0.34436935 -0.25 4.0
0.5 -0.22378817 -0.4123462 0.0
0.00751001 -0.4192563 -0.5 1.0
0.4395109 0.5 -0.21189733 6.0
0.5 0.47058973 -0.35560566 0.0
-0.33333334 -0.16159706 -0.05533573 9.0
-0.5 -0.28619054 0.20684344 3.0
0.33854166 0.48197067 0.09235731 8.0
-0.15831661 -0.2089415 0.5 2.0
0.33333334 -0.24153267 -0.24674717 8.0
0.34972155 0.5 -0.43864 6.0
0.12668301 0.5 -0.4097871 6.0
0.5 -0.13614056 -0.21766146 0.0
-0.4762278 0.30014172 0.49479166 2.0
-0.22471689 -0.46875 -0.25470972 7.0
-0.33333334 0.14148293 -0.13055174 9.0
0.33333334 -0.12741984 -0.12343175 8.0
0.106511936 -0.41949397 0.5 2.0
0.37507924 -0.09025346 -0.5 1.0
0.087447554 0.24900992 -0.25 4.0
0.5 0.010389847 -0.16276579 0.0
-0.059059512 0.421176 0.25 5.0
-0.39505154 -0.5 0.12318186 7.0
-0.33333334 -0.08637113 -0.08255597 9.0
-0.33333334 0.29911947 -0.10788912 9.0
0.33333334 0.34184113 -0.07594929 8.0
0.19585003 -0.5 0.4421969 7.0
0.5 0.3737909 -0.41332603 0.0
-0.24981493 0.08142268 0.5 2.0
-0.33333334 0.21856298 -0.02700734 9.0
-0.19940673 0.0039864266 -0.5 1.0
0.33333334 0.11358935 -0.22882639 8.0
0.32501072 0.1760163 0.5 2.0
-0.02383223 0.06684142 0.5 2.0
-0.5 0.07313341 0.37179902 3.0
-0.31161255 0.46875 0.49658045 6.0
0.14411299 -0.08887002 0.5 2.0
0.34427655 0.5 0.07095189 6.0
0.23928992 -0.5 0.38221076 7.0
-0.5 0.40553936 0.066325195 3.0
-0.19021021 0.1937092 -0.5 1.0
-0.27530172 0.03842854 -0.5 1.0
0.42141986 -0.5 0.019589143 7.0
0.25608605 0.47921908 0.25520834 5.0
0.21033041 -0.024935093 0.25 5.0
0.5 0.17936431 0.35948527 0.0
0.33333334 -0.17965578 -0.06735472 8.0
-0.46063197 0.018165557 0.5 2.0
-0.34573975 -0.5 0.32564658 7.0
-0.33854166 -0.49878955 0.16278237 9.0
0.11179955 -0.33450162 -0.25 4.0
-0.039494436 0.060043674 0.25 5.0
0.20638101 -0.10770809 -0.5 1.0
-0.06483043 0.5 -0.41362366 6.0
0.13829176 0.3816615 0.25 5.0
-0.5 0.06747854 -0.36662167 3.0
0.31040993 -0.04497893 0.25 5.0
-0.27931502 -0.23533581 0.25 5.0
0.3204099 0.36296096 -0.5 1.0
0.07012075 -0.43940103 0.5 2.0
-0.22717924 0.003299654 0.25 5.0
-0.36282566 0.5 -0.17528243 6.0
0.14585565 -0.16805445 0.25 5.0
-0.5 -0.243003 0.47216687 3.0
0.2050003 0.47230643 0.25520834 5.0
-0.13967289 -0.39713937 -0.5 1.0
0.00531035 -0.4939598 -0.25520834 4.0
-0.15132083 -0.22712249 -0.25 4.0
-0.33333334 -0.010473242 0.15493847 9.0
-0.5 0.32587573 -0.43773705 3.0
0.20837934 0.29056802 -0.25 4.0
-0.5 -0.26692432 0.19293818 3.0
0.4604846 -0.5 -0.09276671 7.0
0.38794565 -0.14474156 -0.5 1.0
-0.33333334 -0.26582122 0.14134529 9.0
0.38425803 0.5 -0.27284956 6.0
-0.010696243 0.42684448 -0.25 4.0
0.33333334 0.27426696 -0.23603047 8.0
0.3977949 -0.5 -0.2656469 7.0
-0.21086414 0.10901293 -0.5 1.0
-0.5 -0.062026452 -0.30118904 3.0
-0.3119513 0.33354595 -0.5 1.0
-0.07909126 0.5 0.4476763 6.0
-0.5 -0.28975645 0.2649042 3.0
-0.35963905 -0.5 -0.24559268 7.0
-0.29642296 -0.5 -0.40051606 7.0
-0.5 0.4969523 -0.26507545 3.0
0.4717533 -0.5 -0.28921664 7.0
-0.39441085 0.07394086 0.5 2.0
0.33333334 -0.19678745 0.14879176 8.0
0.5 0.492064 -0.15374509 0.0
-0.28438428 0.17382441 0.5 2.0
-0.5 0.34347603 0.08828989 3.0
-0.031556178 0.38455015 0.25 5.0
0.46175975 -0.050540738 -0.5 1.0
-0.32410708 -0.06837093 -0.5 1.0
0.33333334 -0.168697 -0.019240147 8.0
-0.045899667 -0.24317276 0.25 5.0
-0.5 0.37160775 -0.03343854 3.0
0.5 -0.06943661 0.025647577 0.0
0.07405538 0.5 -0.30735627 6.0
-0.5 0.44807443 -0.23017307 3.0
0.5 0.23717575 -0.014709846 0.0
0.41068202 -0.15437083 -0.5 1.0
0.5 0.01295271 0.3128082 0.0
0.33333334 0.40023518 -0.05458826 8.0
-0.5 -0.1135897 -0.17890632 3.0
0.3516561 0.058774333 0.5 2.0
0.21328494 -0.5 0.4927129 7.0
-0.33333334 0.021380149 0.13697667 9.0
0.24827361 0.22552168 0.25 5.0
0.5 -0.0264466 0.04581199 0.0
-0.5 0.3286818 0.18151128 3.0
-0.5 -0.48811263 0.41984135 3.0
0.30845568 0.048942383 -0.5 1.0
0.08287766 -0.40809274 0.5 2.0
-0.06959546 0.23130919 -0.5 1.0
-0.3508609 0.5 0.24275573 6.0
-0.4758973 -0.5 0.113384694 7.0
-0.13804209 -0.5 -0.3632722 7.0
0.099556416 -0.0037644545 0.5 2.0
-0.5 0.29650247 -0.48290434 3.0
-0.23651598 0.5 -0.4235423 6.0
0.33333334 -0.3881186 -0.1844968 8.0
-0.06531218 -0.16508405 0.25 5.0
-0.22313869 0.3592547 0.25 5.0
-0.5 0.47178182 0.20337376 3.0
0.33333334 -0.11547337 0.24320579 8.0
0.33333334 -0.27682745 -0.16043992 8.0
0.49666768 0.5 0.058076642 6.0
-0.5 -0.45339975 -0.4078817 3.0
0.5 0.13412668 -0.29780114 0.0
0.5 -0.37752074 -0.09074495 0.0
0.33333334 0.12477893 0.1490474 8.0
-0.5 0.25397462 -0.0059932102 3.0
0.33333334 -0.24059084 0.24493258 8.0
0.071052514 0.18279661 -0.25 4.0
-0.39497685 -0.5 0.15455784 7.0
-0.05383354 0.048128616 -0.5 1.0
-0.050743993 -0.22136793 -0.5 1.0
0.1648949 0.33616954 -0.25 4.0
0.5 0.14033309 0.14092107 0.0
0.2423538 0.13037488 -0.25 4.0
0.5 0.2840415 -0.38166264 0.0
-0.5 0.013122443 0.29989788 3.0
0.33034128 0.05304217 -0.25 4.0
-0.5 0.41952386 0.32215652 3.0
0.18833013 -0.12589186 -0.5 1.0
-0.30210596 0.4138058 0.25 5.0
-0.4599715 -0.5 -0.3897758 7.0
-0.22153401 0.23157623 -0.25 4.0
-0.5 -0.37929213 0.01186681 3.0
0.5 0.058244683 -0.00074110215 0.0
0.3365902 0.22793117 0.5 2.0
0.5 -0.15418741 0.38809505 0.0
0.15308866 0.27412903 -0.25 4.0
-0.31839642 -0.5 -0.40799454 7.0
0.33333334 0.08823924 -0.033914767 8.0
0.33333334 -0.44252095 0.011811029 8.0
0.5 0.3324193 -0.33452827 0.0
-0.07853162 -0.3756842 0.25 5.0
0.33333334 0.30332005 0.104935855 8.0
0.33333334 0.1475048 -0.16660346 8.0
-0.13722363 -0.14645477 0.25 5.0
-0.4687441 -0.007916074 0.5 2.0
0.33333334 -0.46153715 0.2011348 8.0
0.33333334 0.33606997 0.053632244 8.0
-0.24569348 0.5 0.26256263 6.0
-0.33854166 0.49358574 -0.21438017 9.0
-0.077374175 -0.5 0.35266092 7.0
-0.5 -0.4768949 0.061949965 3.0
0.5 0.30734295 -0.34945747 0.0
0.5 0.22351259 0.3707819 0.0
0.5 -0.40520555 0.075617045 0.0
0.33333334 -0.1493883 0.1157439 8.0
0.5 -0.010406413 -0.17398462 0.0
-0.45368016 0.47534922 -0.5 1.0
0.47811016 -0.5 -0.47963262 7.0
0.0642453 -0.25945318 0.5 2.0
0.14041425 0.43337825 -0.25 4.0
-0.08193096 0.30900097 0.25 5.0
-0.33333334 0.34256336 0.23289108 9.0
-0.4743183 -0.20691714 -0.5 1.0
-0.48567507 -0.5 -0.15672028 7.0
0.05980547 -0.3674795 -0.25 4.0
0.17578347 0.09999985 -0.25 4.0
0.5 0.19103257 -0.108424835 0.0
0.23654121 0.13449222 0.25 5.0
-0.17152342 0.26368797 0.5 2.0
-0.306417 0.36838588 -0.25 4.0
0.40405843 -0.5 -0.41497675 7.0
-0.33854166 -0.49307907 0.005489382 9.0
-0.26277983 0.031153588 0.25 5.0
0.14162779 0.4935268 -0.5 1.0
0.41229036 0.5 0.054777108 6.0
-0.25476485 0.14490433 0.5 2.0
0.29860422 0.49768007 0.25520834 5.0
-0.33333334 0.4527758 -0.12968855 9.0
-0.5 -0.044174057 -0.4322504 3.0
0.5 0.2656361 -0.47464433 0.0
0.5 -0.40323865 0.3968956 0.0
0.5 0.078196354 0.30580696 0.0
-0.5 -0.017629117 -0.011138932 3.0
-0.39276174 0.5 -0.2671465 6.0
-0.44323674 -0.5 -0.13310336 7.0
0.5 -0.11219636 0.20733263 0.0
-0.22516042 -0.4068883 -0.25 4.0
-0.5 0.08285503 0.04292709 3.0
-0.006615239 -0.14058726 0.5 2.0
0.17016737 0.30379504 -0.25 4.0
0.5 0.16003256 -0.47522753 0.0
-0.5 0.10190394 0.0946866 3.0
0.26392627 -0.41122535 0.25 5.0
0.5 0.34813783 0.46502608 0.0
0.25526562 0.5 0.4319742 6.0
-0.4467735 -0.5 -0.18093246 7.0
-0.5 -0.40962905 0.12221886 3.0
0.5 0.28391838 -0.3381566 0.0
-0.5 -0.21552761 0.18889454 3.0
0.5 0.1791211 0.48750344 0.0
0.35252917 0.5 0.21098559 6.0
-0.5 -0.08612075 -0.29467332 3.0
-0.27571383 0.2327887 0.25 5.0
0.069045454 0.34942552 -0.5 1.0
-0.04423717 -0.38582626 -0.5 1.0
-0.20776092 -0.5 -0.34035343 7.0
0.5 -0.012254928 -0.03245079 0.0
-0.33333334 0.09588888 -0.099526815 9.0
-0.5 0.2284174 -0.31164098 3.0
-0.12780222 0.2474783 0.5 2.0
0.0708493 0.034428515 0.5 2.0
0.26098981 -0.12766868 0.5 2.0
-0.3408644 0.5 -0.12378393 6.0
-0.35249987 -0.5 -0.10638668 7.0
0.33333334 0.046505805 -0.15720588 8.0
-0.044008702 -0.5 0.34687105 7.0
-0.5 -0.27866134 0.10146843 3.0
0.109678306 -0.21547851 -0.25 4.0
0.45269018 0.5 -0.07553477 6.0
0.33333334 0.32078862 0.1479936 8.0
0.13603352 -0.20503652 0.5 2.0
0.5 0.28096193 0.18539256 0.0
0.14921376 -0.13241066 0.5 2.0
0.33333334 -0.44236878 -0.20634821 8.0
-0.4136737 -0.5 0.061658844 7.0
-0.24224396 0.48114228 -0.25520834 4.0
0.5 0.23434046 0.34324014 0.0
-0.5 -0.086540915 0.21725695 3.0
0.33333334 0.1696422 0.06973771 8.0
0.33333334 -0.3885095 0.14274903 8.0
0.5 -0.22767495 0.3901816 0.0
0.25672457 0.07613814 -0.5 1.0
0.41395304 -0.5 -0.0062299143 7.0
0.5 0.42752993 0.42292196 0.0
0.02576024 -0.38613945 0.25 5.0
-0.025898488 0.35851392 0.25 5.0
-0.5 0.4828611 0.41373995 3.0
-0.33333334 -0.41385165 -0.08133456 9.0
0.3581303 0.5 0.12399914 6.0
-0.32150322 0.006078307 -0.5 1.0
0.5 0.26560357 -0.31438738 0.0
0.5 -0.070791245 0.0033369593 0.0
0.29375237 -0.5 -0.47798607 7.0
-0.019557204 0.17683128 0.5 2.0
-0.5 -0.2941026 -0.4325078 3.0
-0.5 -0.4002689 0.4082989 3.0
0.42648834 -0.5 0.11833187 7.0
0.26144323 -0.37464184 -0.25 4.0
0.5 0.17317863 -0.39786926 0.0
0.5 -0.37018073 -0.002160651 0.0
0.5 -0.26598087 0.09574845 0.0
-0.33333334 -0.36744747 -0.2039117 9.0
0.5 0.11831917 -0.019814605 0.0
-0.18433131 0.15512265 0.25 5.0
0.03622244 0.32756573 -0.25 4.0
-0.0016250429 -0.010568314 0.25 5.0
-0.31044057 0.10458561 -0.25 4.0
0.33333334 0.25276256 0.07604272 8.0
0.109987505 -0.3884541 0.5 2.0
0.5 -0.4370415 -0.4839657 0.0
0.378909 -0.5 -0.14599429 7.0
-0.2764868 0.38847175 0.25 5.0
0.37422705 0.5 -0.49760282 6.0
-0.5 0.38909316 -0.36943352 3.0
0.4188029 -0.44428653 -0.5 1.0
-0.33854166 0.47597584 0.17290449 9.0
-0.113751486 -0.42129377 0.25 5.0
0.5 0.20676585 0.026302695 0.0
0.5 0.17962776 -0.31749824 0.0
0.5 -0.37432298 -0.06292872 0.0
0.41572002 0.5 -0.43753088 6.0
-0.22908813 -0.3597725 0.25 5.0
-0.5 0.076217 -0.2435214 3.0
-0.12978603 0.30412057 -0.25 4.0
-0.5 -0.37109295 0.3374493 3.0
0.5 -0.013220334 -0.14530186 0.0
-0.33333334 -0.46167853 -0.11389952 9.0
-0.0868194 -0.41549647 -0.25 4.0
-0.24915166 -0.39603454 -0.5 1.0
0.5 0.14305294 0.4290126 0.0
-0.5 -0.34004837 -0.48682067 3.0
0.5 -0.3239296 0.30117923 0.0
-0.5 0.40836436 0.09611028 3.0
-0.5 -0.3482571 0.15497324 3.0
-0.38976476 0.5 0.13792238 6.0
-0.5 0.24354511 0.3134853 3.0
0.1052864 -0.012601576 -0.5 1.0
0.24381821 0.5 -0.35125136 6.0
-0.048546318 -0.38013408 -0.25 4.0
0.4027739 0.06012748 0.5 2.0
-0.5 0.23630798 0.414525 3.0
0.33333334 0.16570215 -0.15418701 8.0
-0.48487657 0.5 0.049336076 6.0
0.31355014 -0.40304026 -0.25 4.0
-0.49365705 -0.07322435 0.49479166 2.0
0.114811465 0.16948318 -0.25 4.0
0.5 -0.11265678 0.060693488 0.0
0.17847387 -0.3955307 -0.5 1.0
0.11864825 0.34235 0.25 5.0
-0.3288851 0.5 -0.44198236 6.0
0.5 -0.1848271 0.010479741 0.0
0.5 -0.25819248 0.15957041 0.0
-0.46875 -0.31245232 0.49655473 3.0
-0.42925587 0.25227198 0.5 2.0
0.5 -0.48295113 -0.34405586 0.0
-0.33333334 -0.4442701 0.079503484 9.0
0.33333334 -0.27415133 0.013423346 8.0
0.33333334 -0.1014336 -0.19686139 8.0
0.33333334 0.4102963 0.03879075 8.0
0.2744973 0.41232818 0.25 5.0
0.08680224 0.4473526 0.5 2.0
-0.23856929 -0.18897724 -0.5 1.0
-0.12528016 0.1941409 -0.25 4.0
0.33333334 0.41763538 -0.21231268 8.0
0.5 -0.44322276 0.25913304 0.0
0.29407898 -0.14438288 -0.25 4.0
0.19198386 -0.0029836837 -0.25 4.0
-0.17138454 -0.04685448 0.5 2.0
0.33333334 -0.1689728 -0.24117976 8.0
0.4415969 0.5 0.019087633 6.0
0.21576056 0.22719201 -0.5 1.0
0.5 0.20870979 -0.4925323 0.0
0.5 0.46773365 0.13924186 0.0
-0.5 -0.23062372 -0.39877087 3.0
0.45225835 0.3774656 -0.5 1.0
-0.46039137 0.45176005 -0.5 1.0
0.33333334 0.3678689 -0.067737624 8.0
0.28430834 -0.5 0.42913342 7.0
-0.5 -0.13665424 -0.2516878 3.0
0.44054312 -0.5 -0.44437265 7.0
0.33333334 -0.43565392 -0.08540887 8.0
-0.10172434 0.13644342 0.5 2.0
-0.5 -0.44003043 -0.12721345 3.0
-0.092950396 0.040967625 -0.25 4.0
-0.25456616 -0.48332068 -0.5 1.0
-0.24805894 -0.41485834 0.25 5.0
0.08470425 -0.27495548 0.25 5.0
-0.5 0.12211823 -0.4402441 3.0
0.5 -0.09795704 -0.17964138 0.0
0.5 0.39462057 0.28210607 0.0
-0.33333334 -0.2617805 -0.20762756 9.0
0.5 -0.365333 -0.42518497 0.0
0.20727235 -0.5 0.2601657 7.0
0.33333334 0.2897428 -0.14933628 8.0
-0.46080145 0.5 0.047052924 6.0
-0.5 -0.013270241 0.3728517 3.0
0.3307563 -0.13148627 0.5 2.0
-0.33333334 -0.14065863 0.05523681 9.0
0.27490038 0.059423964 -0.25 4.0
0.38450837 0.5 -0.112456016 6.0
0.5 -0.27173588 -0.05064683 0.0
0.16354248 0.24955459 0.25 5.0
0.5 0.3520593 -0.06378606 0.0
-0.044773333 0.2961517 -0.25 4.0
-0.18348828 -0.26438722 -0.25 4.0
-0.32969818 0.44257176 0.5 2.0
-0.1544151 0.5 -0.42275235 6.0
0.30140817 -0.4729681 -0.5 1.0
-0.27819178 0.20344152 -0.25 4.0
0.13780828 -0.49014887 -0.5 1.0
-0.46882814 -0.39089966 0.49479166 2.0
0.19035177 -0.01209307 0.5 2.0
0.2266506 0.5 0.47827417 6.0
-0.17470187 -0.30582222 0.25 5.0
-0.17022333 0.093177386 0.25 5.0
0.41458035 0.5 -0.21012148 6.0
-0.044354413 -0.4680942 -0.5 1.0
-0.33854166 0.4913195 -0.14422892 9.0
0.5 -0.4726773 -0.46898285 0.0
0.5 -0.41682422 0.15213986 0.0
0.33333334 0.11503604 0.016759127 8.0
-0.5 -0.3362534 0.43549973 3.0
0.5 -0.28505272 -0.33163497 0.0
0.137212 -0.39473474 0.5 2.0
0.32134685 -0.21821855 0.5 2.0
0.5 0.0781121 -0.3531353 0.0
-0.4647267 -0.07111349 0.5 2.0
0.5 0.3289403 0.47637826 0.0
-0.5 0.029487735 -0.26567516 3.0
0.5 -0.2346297 0.06601778 0.0
-0.3390149 -0.5 0.053444784 7.0
0.23703031 -0.40169176 0.25 5.0
0.100570075 0.49930397 -0.5 1.0
0.33333334 0.4405472 0.10385388 8.0
-0.33333334 -0.097360894 -0.19465438 9.0
-0.33333334 0.27615267 -0.11765582 9.0
-0.5 0.49792627 0.45980698 3.0
0.37701944 -0.41674128 0.5 2.0
-0.13926962 0.43564302 0.25 5.0
-0.5 0.22701974 0.43662325 3.0
0.3142793 0.42025855 -0.5 1.0
0.17184897 0.5 0.44615096 6.0
0.41091502 0.5 -0.104265794 6.0
0.33333334 0.10582189 -0.20802042 8.0
-0.28116196 -0.3890578 -0.5 1.0
0.5 -0.21831009 -0.29926327 0.0
-0.5 -0.22544585 -0.04327869 3.0
0.256527 -0.0748482 -0.25 4.0
-0.34218144 -0.5 0.3846111 7.0
-0.33333334 -0.26024517 0.03485643 9.0
-0.5 0.27370286 -0.38661775 3.0
0.2795095 -0.11605459 -0.25 4.0
-0.31095436 -0.29491237 0.25 5.0
0.37319034 0.28269732 0.5 2.0
-0.07156315 -0.20265669 0.5 2.0
-0.5 -0.45303857 -0.19059268 3.0
0.44691753 -0.47541296 0.49479166 2.0
0.119424455 0.36454457 -0.5 1.0
-0.21919616 -0.4958861 0.25520834 5.0
0.5 0.086146094 -0.3972579 0.0
-0.034215905 -0.20488885 -0.25 4.0
0.24802037 0.5 0.27057943 6.0
0.33333334 0.23560688 0.15981618 8.0
-0.14882864 -0.2619428 0.25 5.0
-0.24345662 -0.21833368 -0.25 4.0
-0.31088525 -0.3727312 -0.25 4.0
-0.339042 -0.14356792 0.5 2.0
0.49213773 0.28612506 0.49479166 2.0
0.4747744 0.13073613 0.49479166 2.0
0.5 -0.015056064 0.3227683 0.0
-0.5 -0.05434099 0.47124076 3.0
-0.5 0.30342564 0.48576337 3.0
0.29796165 0.36505577 -0.5 1.0
0.4146863 0.27538282 -0.5 1.0
0.19500783 -0.46875 -0.2544535 7.0
0.19624917 -0.2339495 0.25 5.0
-0.5 0.46282306 -0.06525476 3.0
-0.13319714 -0.1471654 -0.5 1.0
-0.5 0.29683676 -0.34537727 3.0
0.33333334 0.2916064 0.045718636 8.0
-0.5 -0.30469877 0.23251429 3.0
-0.0675962 -0.25750917 -0.25 4.0
-0.5 0.13595735 0.099686496 3.0
0.3213688 -0.28128532 0.5 2.0
0.031003498 -0.5 -0.3295731 7.0
0.1899027 0.15293175 -0.25 4.0
-0.04170622 0.5 -0.25866964 6.0
0.2368372 0.3795203 0.5 2.0
-0.2163684 -0.3815893 0.25 5.0
-0.33333334 -0.40589422 0.18668842 9.0
-0.29865515 -0.5 0.44032678 7.0
-0.14080928 -0.19657777 -0.25 4.0
0.108795844 -0.086840585 -0.25 4.0
0.5 0.016601093 0.008079448 0.0
-0.07144931 0.25229886 0.25 5.0
0.48897356 0.5 -0.33684683 6.0
-0.33333334 0.2836831 -0.034825545 9.0
0.21963137 -0.3421775 0.25 5.0
-0.5 -0.33399978 -0.006177987 3.0
-0.4757528 -0.33884874 0.49479166 2.0
-0.16861257 0.11934001 0.25 5.0
0.28741303 0.38207644 0.25 5.0
0.24832311 -0.48452753 -0.5 1.0
-0.08953187 0.15661801 -0.5 1.0
-0.5 -0.1922079 -0.13304211 3.0
0.12543917 0.436909 0.25 5.0
-0.2402001 0.45596558 -0.5 1.0
-0.5 0.08827328 -0.2157834 3.0
0.17035507 0.33213902 0.5 2.0
-0.0821885 -0.31343868 -0.5 1.0
0.32691902 -0.1868746 0.25 5.0
-0.5 0.2693654 0.26762962 3.0
0.2081567 0.5 -0.35444707 6.0
-0.12191278 0.30079326 -0.5 1.0
-0.33333334 -0.056692924 0.13541149 9.0
0.07433326 -0.5 -0.35480407 7.0
0.33333334 -0.45786843 -0.22601995 8.0
-0.39925385 0.4448501 -0.5 1.0
-0.30028623 0.14422932 0.5 2.0
0.5 0.05170922 0.31602624 0.0
-0.5 -0.13463406 0.2679564 3.0
0.5 -0.21869011 -0.2738282 0.0
0.5 -0.2362614 0.37099916 0.0
0.05480122 -0.1467318 -0.25 4.0
0.27971748 0.21156284 -0.5 1.0
-0.5 0.11660502 -0.07399101 3.0
-0.35650554 0.5 0.35822272 6.0
-0.5 -0.07456507 0.41422513 3.0
-0.5 -0.21501964 0.29222548 3.0
0.26927996 0.2522647 0.25 5.0
-0.20167412 -0.30843863 0.5 2.0
-0.26609105 -0.2825821 -0.5 1.0
0.33702734 0.4728762 0.25520834 5.0
0.11911919 -0.5 0.3651035 7.0
-0.5 -0.14245468 0.36018834 3.0
0.5 0.12317488 -0.18373197 0.0
0.21523853 -0.5 -0.3317203 7.0
0.5 0.45756528 0.43251958 0.0
0.18495508 -0.3857643 0.5 2.0
-0.036259245 0.37317047 0.5 2.0
-0.4037921 -0.04618576 -0.5 1.0
0.12638971 0.23740637 0.25 5.0
0.4272386 -0.28495917 -0.5 1.0
-0.5 0.34941617 -0.055722367 3.0
-0.15874958 0.2711969 -0.25 4.0
0.33649778 -0.013040522 -0.5 1.0
0.33333334 0.31215107 0.19120838 8.0
0.23304757 0.2190588 0.25 5.0
-0.33854166 0.47398287 0.1504624 9.0
0.16544333 0.07039274 -0.25 4.0
0.016198978 0.28953028 -0.5 1.0
-0.33333334 -0.01203051 -0.14403827 9.0
-0.29827008 -0.15221521 -0.5 1.0
-0.33333334 -0.3964694 -0.06629141 9.0
0.035420887 -0.5 -0.45972586 7.0
0.22070034 -0.12950714 0.5 2.0
0.5 0.38425383 -0.21897191 0.0
-0.5 -0.33284974 -0.09769977 3.0
-0.487462 0.09142656 0.49479166 2.0
0.18447801 0.5 -0.47124085 6.0
-0.5 0.34230223 -0.10114689 3.0
-0.5 -0.40610296 0.36047557 3.0
-0.24750893 0.012238995 0.25 5.0
0.40141985 -0.2226292 -0.5 1.0
0.31920967 0.1277515 0.5 2.0
0.20868203 0.27265993 0.5 2.0
0.22382513 -0.47967842 0.49479166 2.0
-0.2745468 -0.44118977 0.25 5.0
0.5 0.32570305 -0.36748767 0.0
-0.27773216 0.5 -0.35835272 6.0
-0.40090594 -0.5 0.35302535 7.0
-0.5 0.3718477 0.09950828 3.0
-0.5 -0.19670184 -0.060729157 3.0
0.14036614 -0.23707315 0.25 5.0
0.5 0.2643969 0.11595011 0.0
-0.4556604 0.5 0.09630974 6.0
-0.5 -0.021561645 0.41679433 3.0
-0.028096877 0.5 0.47528648 6.0
-0.33928168 -0.5 -0.17750901 7.0
0.07534796 -0.5 0.36849412 7.0
-0.5 0.26721045 -0.28064752 3.0
0.107326776 -0.30714962 -0.5 1.0
0.07486179 -0.11767395 -0.25 4.0
-0.2813942 -0.2139291 -0.5 1.0
0.18240035 0.4222657 -0.5 1.0
-0.33333334 0.3791962 0.14899597 9.0
-0.283648 0.29775935 0.5 2.0
0.048785478 0.1384787 0.25 5.0
-0.5 -0.1968554 0.39337775 3.0
0.5 -0.061400864 0.4754996 0.0
-0.36827725 0.44036382 0.5 2.0
0.5 -0.18694979 0.33786944 0.0
-0.044203326 0.2298465 0.25 5.0
0.5 0.054033816 0.22015549 0.0
-0.05272543 -0.41115126 -0.5 1.0
0.027435442 0.2985012 0.25 5.0
0.26388216 -0.32568753 -0.5 1.0
0.5 0.4765952 0.46856388 0.0
-0.33333334 0.41711396 0.014047074 9.0
0.33333334 0.27018088 0.12926662 8.0
-0.42048353 -0.5 0.4464752 7.0
-0.33333334 -0.31096837 0.058752332 9.0
-0.28938892 -0.36481133 -0.25 4.0
0.41638386 0.5 -0.24140245 6.0
-0.12855022 -0.23830366 0.5 2.0
-0.25005734 -0.5 0.357595 7.0
-0.23989077 0.24522734 -0.25 4.0
-0.0386347 0.23260929 0.5 2.0
-0.5 0.24469158 0.34034482 3.0
-0.33333334 0.12880243 -0.1620547 9.0
0.44309607 0.20439208 0.5 2.0
0.12859195 -0.06612735 -0.25 4.0
-0.15535198 0.16684261 0.25 5.0
0.36001632 -0.15629731 0.5 2.0
-0.056385357 -0.5 -0.47987238 7.0
-0.32032773 -0.046515223 -0.5 1.0
0.5 -0.28951204 0.3823528 0.0
-0.1840854 0.5 0.48562837 6.0
-0.33333334 -0.46414804 -0.23436399 9.0
0.5 0.47721243 0.18449791 0.0
-0.013302635 -0.16656967 0.25 5.0
-0.30112305 -0.5 0.4183002 7.0
-0.5 0.1887126 -0.32628867 3.0
0.24380293 -0.049731273 0.25 5.0
-0.19850817 -0.4593761 -0.5 1.0
-0.5 -0.04890471 0.42189017 3.0
0.2597316 -0.17286538 -0.5 1.0
0.46866143 -0.36301285 0.5 2.0
-0.032185163 -0.13017379 0.5 2.0
-0.023175362 -0.026635114 -0.25 4.0
0.5 -0.05163452 -0.15255107 0.0
-0.3139827 -0.115379885 0.5 2.0
-0.35480314 -0.46826825 -0.5 1.0
0.4562756 0.3363283 -0.5 1.0
-0.25785363 0.22377719 0.5 2.0
0.19497322 0.12709077 -0.5 1.0
0.5 -0.26877147 0.24464922 0.0
-0.046535715 0.5 0.33943334 6.0
0.5 0.22874157 -0.33389518 0.0
-0.33333334 -0.38240442 -0.24834539 9.0
-0.0068856613 0.121704094 -0.25 4.0
0.039990824 0.37904575 -0.25 4.0
-0.12382073 0.26069742 0.25 5.0
0.5 -0.13338447 -0.14469774 0.0
-0.43504483 0.441017 -0.5 1.0
-0.33333334 0.4520644 0.14673185 9.0
-0.5 0.2053282 -0.008359754 3.0
-0.5 -0.30564886 -0.16179942 3.0
-0.5 0.4362615 -0.30343306 3.0
-0.26463243 0.21198802 0.25 5.0
-0.16170424 -0.02351618 -0.25 4.0
-0.5 0.4315431 -0.41802564 3.0
-0.431686 -0.5 0.32451528 7.0
-0.11733065 -0.36906147 -0.5 1.0
0.020712828 0.48252687 -0.5 1.0
0.35360804 0.2969042 0.5 2.0
-0.5 -0.18546484 -0.2534855 3.0
0.5 0.2247442 0.43410277 0.0
0.33333334 -0.021486696 0.10726909 8.0
-0.12813614 0.40446645 0.25 5.0
0.33333334 -0.3603717 0.066888444 8.0
-0.15575847 -0.5 -0.37957188 7.0
0.5 -0.1695611 0.026451211 0.0
0.33333334 -0.012054057 -0.13269176 8.0
0.0011616193 -0.00031642814 0.5 2.0
-0.5 0.08757222 -0.05990475 3.0
-0.33333334 0.1120255 -0.18777636 9.0
-0.5 -0.17841761 0.47416034 3.0
-0.41645792 -0.5 -0.46164346 7.0
-0.4702715 0.5 0.0014572962 6.0
0.5 0.3748394 -0.32239962 0.0
-0.47204995 -0.5 -0.21544968 7.0
-0.3015721 0.33171627 0.25 5.0
-0.3630933 0.5 -0.43727013 6.0
0.5 0.48071724 0.4145997 0.0
0.318715 0.06764019 0.5 2.0
0.35377038 -0.40792543 0.5 2.0
-0.5 -0.09127631 0.08487843 3.0
-0.33333334 0.16578084 -0.20735863 9.0
-0.32265314 0.20923255 0.5 2.0
0.06499749 0.15399335 0.25 5.0
0.28258383 0.30128878 -0.25 4.0
-0.11297626 -0.17641725 -0.5 1.0
-0.48584384 -0.2779585 -0.5 1.0
0.5 -0.42912006 0.43850282 0.0
-0.30265102 -0.05958488 -0.5 1.0
-0.031557437 0.40362862 -0.5 1.0
0.068063214 -0.26278815 -0.5 1.0
0.35943487 -0.5 -0.37547454 7.0
0.4074492 -0.5 -0.3723192 7.0
-0.21812141 -0.47998315 -0.5 1.0
-0.5 -0.36677974 -0.29142886 3.0
-0.33333334 0.281287 0.22131507 9.0
-0.33333334 0.02313773 0.085393876 9.0
-0.41160282 0.5 0.2880469 6.0
0.33333334 -0.08635782 0.013255499 8.0
0.3424746 0.41557598 -0.5 1.0
-0.33333334 -0.4260057 -0.19382285 9.0
0.33333334 0.10083553 0.18658727 8.0
-0.32714733 -0.045788843 0.25 5.0
0.21230024 0.17802471 -0.25 4.0
-0.19625747 0.344057 -0.25 4.0
0.33333334 0.2615111 0.004284728 8.0
0.49300736 0.45975786 -0.5 1.0
0.4551972 -0.17661996 -0.5 1.0
-0.06720228 -0.08758826 0.5 2.0
-0.17226662 -0.3224273 -0.25 4.0
-0.08584186 0.18857203 0.5 2.0
0.22157715 -0.5 -0.45898715 7.0
-0.031522654 0.42049733 0.5 2.0
-0.49239326 -0.26664662 0.49479166 2.0
0.31579658 0.5 -0.36399513 6.0
-0.32567605 0.4961803 0.25520834 5.0
-0.35968304 0.5 -0.14916712 6.0
0.44153342 0.32505983 0.5 2.0
-0.467509 -0.23171678 -0.5 1.0
-0.5 0.29655617 -0.32083127 3.0
-0.05673162 -0.2738092 0.25 5.0
-0.3966777 -0.3836087 -0.5 1.0
-0.25684002 -0.012919431 0.25 5.0
-0.28260756 -0.4945119 -0.25520834 4.0
-0.38720462 0.5 0.01799893 6.0
-0.5 -0.042465556 -0.48151988 3.0
-0.2050351 -0.43632072 -0.25 4.0
0.45417154 0.17606895 -0.5 1.0
-0.5 0.44076952 -0.20950583 3.0
-0.5 -0.061176054 -0.41711503 3.0
-0.33333334 -0.43704686 0.18464305 9.0
0.33333334 -0.111986905 -0.14290583 8.0
-0.30573043 0.28826004 -0.25 4.0
0.33333334 0.43945017 0.20590998 8.0
-0.22191492 -0.45527866 0.25 5.0
0.33047986 0.32322928 0.25 5.0
0.31527737 0.29888982 0.25 5.0
-0.33333334 0.23526211 -0.004570322 9.0
0.37543973 0.15751004 0.5 2.0
0.19168273 -0.07800641 0.25 5.0
-0.32063943 -0.2646127 0.5 2.0
0.5 -0.1110511 0.035909906 0.0
0.5 0.1674026 -0.026198603 0.0
-0.5 0.34923038 -0.32253745 3.0
0.5 -0.26188263 -0.34440222 0.0
-0.33333334 0.3410773 -0.017066414 9.0
-0.33333334 -0.13857254 -0.1662511 9.0
-0.33333334 0.46465907 -0.1536429 9.0
0.25318766 -0.5 -0.4838916 7.0
0.5 -0.46443504 0.28116336 0.0
0.13857429 -0.1267755 -0.25 4.0
-0.39008436 -0.11484994 0.5 2.0
-0.5 -0.24852587 -0.14372577 3.0
-0.33333334 -0.40803358 0.025171084 9.0
-0.5 0.33288777 -0.30793276 3.0
0.5 0.043346047 0.26070297 0.0
-0.31718814 -0.290935 -0.5 1.0
0.5 -0.14957047 0.19346747 0.0
0.5 -0.25052956 0.3299803 0.0
-0.5 -0.49213904 -0.47052944 3.0
0.373784 0.3083322 0.5 2.0
0.5 -0.22824177 -0.20289347 0.0
-0.24394263 -0.33653665 -0.25 4.0
-0.5 0.25557095 -0.44667435 3.0
0.07721564 -0.3527139 0.5 2.0
-0.09352983 -0.4693606 -0.5 1.0
-0.3390603 0.04745792 -0.5 1.0
-0.21678069 0.02778567 0.25 5.0
-0.33333334 -0.46431488 -0.038337108 9.0
0.5 0.21774957 0.16190079 0.0
0.37480786 -0.5 0.022957718 7.0
0.5 0.19615752 -0.2692578 0.0
-0.42674592 0.14445755 0.5 2.0
0.37276074 0.009630291 -0.5 1.0
-0.5 0.16836248 0.044236314 3.0
0.32561973 -0.5 -0.405373 7.0
-0.22296824 -0.38503432 0.5 2.0
-0.5 -0.40859 -0.07874079 3.0
-0.33333334 -0.016549762 0.026433049 9.0
0.5 0.048824508 -0.120375425 0.0
-0.5 -0.31717244 -0.3607735 3.0
0.09788752 0.1961001 -0.5 1.0
-0.5 -0.22801827 0.090394326 3.0
-0.5 -0.2976226 0.06270018 3.0
-0.5 -0.4977545 -0.49807987 3.0
0.29414767 0.44481683 -0.5 1.0
-0.3185505 -0.48792374 -0.5 1.0
0.025636394 0.3867232 0.25 5.0
-0.5 -0.31782854 -0.47377244 3.0
-0.2014173 -0.5 0.28689063 7.0
0.07829169 0.49027964 -0.5 1.0
-0.33333334 0.30137926 0.10652132 9.0
0.5 -0.49986023 -0.3254201 0.0
0.33333334 -0.09400287 -0.18494526 8.0
-0.081490904 0.43275213 -0.25 4.0
-0.16330105 -0.050731424 0.25 5.0
0.31977183 0.5 -0.27204266 6.0
0.443001 0.15250273 -0.5 1.0
-0.041359853 0.1798611 0.5 2.0
0.33333334 -0.22394554 -0.11033813 8.0
0.33333334 0.42420298 -0.12586331 8.0
-0.07686764 -0.244836 0.25 5.0
0.26686168 0.44120297 -0.5 1.0
0.1853945 0.08662357 0.5 2.0
-0.5 0.432043 0.03365421 3.0
-0.5 -0.11004562 0.13190159 3.0
-0.33333334 0.10131948 0.16687573 9.0
0.16097672 0.22299843 -0.5 1.0
-0.046337232 -0.208841 0.5 2.0
-0.5 -0.38223606 0.04623812 3.0
0.14903183 0.3300161 0.25 5.0
0.09894904 -0.21675667 0.5 2.0
-0.08944245 -0.4054954 0.25 5.0
0.5 -0.42011178 0.27009562 0.0
-0.40394875 -0.5 -0.49007124 7.0
-0.5 0.4431686 -0.15141614 3.0
-0.18608136 -0.07007108 0.5 2.0
0.08521643 0.007556532 -0.5 1.0
-0.5 -0.33109653 -0.34296083 3.0
-0.33333334 0.15168038 0.20283289 9.0
-0.5 0.37300688 0.1419267 3.0
-0.5 -0.39051804 -0.40504903 3.0
0.23885147 -0.43619502 -0.5 1.0
-0.41108057 -0.40845525 -0.5 1.0
0.5 -0.104669325 -0.15446857 0.0
0.31201917 -0.0680197 0.25 5.0
0.3777832 0.24531633 -0.5 1.0
-0.12601282 0.19590743 0.25 5.0
0.113352075 0.076041065 0.5 2.0
-0.48047042 -0.5 -0.48194265 7.0
-0.49149728 -0.5 -0.031649787 7.0
0.33333334 -0.37023923 -0.056822546 8.0
-0.12466196 0.0668601 0.5 2.0
-0.5 -0.4728742 0.44239873 3.0
0.5 0.3600964 -0.17765076 0.0
0.5 -0.342468 -0.43846095 0.0
0.03433022 0.18140402 -0.25 4.0
-0.33333334 -0.33303934 0.2141361 9.0
-0.14475988 0.09533944 0.25 5.0
0.24015681 -0.22866951 -0.5 1.0
0.30567285 -0.0894364 0.25 5.0
-0.43609643 -0.09687625 -0.5 1.0
-0.16507608 -0.45748454 0.5 2.0
0.064623676 0.5 -0.456278 6.0
-0.38456205 0.5 -0.14537692 6.0
-0.33333334 0.032894917 0.16463228 9.0
-0.19321868 0.3494261 0.5 2.0
-0.5 0.06781746 0.064503804 3.0
0.20320949 0.35585243 -0.25 4.0
0.33333334 0.3382574 -0.018922169 8.0
-0.5 -0.0651251 0.0983575 3.0
0.5 -0.45080897 -0.19684939 0.0
0.33333334 0.28610796 0.21869168 8.0
-0.07179935 0.0006734519 0.25 5.0
0.41754618 0.5 0.025373727 6.0
0.33854166 -0.4954057 0.04420089 8.0
0.5 0.38181987 -0.11046111 0.0
0.42549002 -0.101430826 -0.5 1.0
0.48742452 0.5 -0.04648048 6.0
0.12803683 0.16905884 -0.5 1.0
-0.18839227 -0.38817224 -0.5 1.0
-0.20102155 0.34410632 -0.5 1.0
-0.5 -0.41982913 0.10271926 3.0
0.5 -0.4545609 0.22261775 0.0
0.26403213 -0.16399923 0.5 2.0
-0.5 0.16090061 0.4484263 3.0
-0.5 0.23647633 0.36665046 3.0
0.5 0.10803925 0.06794173 0.0
-0.3989003 -0.5 -0.32623866 7.0
0.26677525 -0.11710779 0.25 5.0
-0.5 0.20788051 0.112563305 3.0
0.5 -0.021330327 -0.43352148 0.0
-0.36742947 0.5 0.17303716 6.0
-0.34603047 0.006833142 -0.5 1.0
0.4922915 0.5 -0.23342216 6.0
-0.17323247 -0.27721328 -0.5 1.0
-0.26696274 0.2661995 -0.25 4.0
0.21833357 0.32936874 0.5 2.0
0.33333334 0.3451592 0.024246028 8.0
-0.24833663 -0.5 -0.29786792 7.0
0.3280674 -0.116620645 -0.5 1.0
0.2924756 0.15111776 -0.5 1.0
0.26698276 -0.22747508 0.25 5.0
-0.4752713 0.5 -0.1966059 6.0
0.5 -0.16810039 -0.0072668516 0.0
-0.31977972 0.037511356 0.5 2.0
0.17815262 0.0248959 0.5 2.0
0.2412588 0.13317804 -0.5 1.0
-0.18427716 0.25077423 -0.5 1.0
-0.12860045 0.40479037 -0.5 1.0
0.09574479 -0.5 -0.40893948 7.0
0.16722566 0.44365793 -0.5 1.0
0.33333334 -0.26344633 -0.22906978 8.0
0.23629038 -0.5 -0.40323162 7.0
0.33333334 0.10887176 -0.052870605 8.0
0.22182241 0.5 -0.32058486 6.0
0.28264526 -0.2582556 -0.5 1.0
0.070176125 0.27052933 0.5 2.0
-0.052663557 0.34058887 -0.25 4.0
-0.33333334 0.09580397 0.023732997 9.0
-0.2931883 -0.3235691 0.25 5.0
-0.15197529 0.30981994 -0.25 4.0
0.3469018 0.44840106 -0.5 1.0
